# .PCD v0.7 - Point Cloud Data file format
VERSION 0.7
FIELDS x y z intensity
SIZE 4 4 4 4
TYPE F F F F
COUNT 1 1 1 1
WIDTH 1205
HEIGHT 1
VIEWPOINT 0 0 0 1 0 0 0
POINTS 1205
DATA ascii
9.3784266 -2.6760583 2.1088595 15.001715
9.2706375 -1.8142929 2.140172 14.6215
9.4776258 -1.3294441 2.1438031 15.1294
9.3266935 -1.0012349 2.176064 15.107959
9.4252071 7.316308 2.1879644 13.786083
9.3736153 -0.96810973 2.5152605 15.087
9.5593739 3.5001445 2.7170475 15.1
9.2859364 3.7032216 2.5330274 15.1015
9.4886198 6.1564832 2.5761979 15.11
9.4066076 7.2953272 2.6272426 14.428572
9.4166193 7.2959976 2.9803028 15
9.3984051 18.135393 3.168644 12.084167
9.3498344 18.148594 3.3403921 12.780375
9.4051905 17.28068 3.8553658 14.8121
9.4571381 17.296055 4.5502768 14.060249
9.7361984 -4.3030391 -0.82780379 4
9.9007473 -4.263761 -0.62242216 4.75
9.8715401 -3.4108086 -0.6451354 4
9.8899851 -2.5200129 -0.47319621 5
9.7443981 -1.9068519 -0.63981855 2
9.7445164 -1.3309929 -0.63522255 0.5
9.7623091 -1.0067115 -0.52509838 2.7916667
9.7782965 -0.63912606 -0.6107322 2.75
9.7680569 -0.1436169 -0.62645614 2.2307692
9.7155523 0.25818294 -0.60808426 2.5
9.770915 0.60702682 -0.61898887 1.75
9.7678223 0.98591477 -0.61529589 1.7142857
9.8039112 1.4006742 -0.60664564 2.3571429
9.9166927 1.7917935 -0.60342103 0.75
9.7449818 2.1698241 -0.60145104 0.5
9.875493 2.5545673 -0.60393721 0.25
9.7956553 3.0179632 -0.59211719 0.59375
9.8133192 3.3942831 -0.60280222 1.125
9.7678242 3.8692954 -0.54219073 2.25
9.7275314 4.1482053 -0.56641793 2
9.6879005 4.6771326 -0.57502556 3
9.7655525 4.9963365 -0.55726087 3
9.9224415 5.2194581 -0.54183567 3
9.8063259 6.6709166 -0.526838 2
9.8601627 6.9848895 -0.47697976 1.6428572
9.7662945 7.3190103 -0.48224774 1.4
9.7687902 -1.0402739 -0.15544333 4.4372091
9.8222828 3.5143316 -0.18179598 4.666667
9.8916893 7.1106901 -0.23051038 3.7073171
9.6159801 7.425962 -0.3272807 3.4000001
9.7944279 -4.3109722 0.26804537 8.026
9.7965622 -1.0242783 0.19433357 7.8991618
9.806529 3.4088969 0.19546114 7.8519049
9.8357363 7.0262942 0.17549078 7.4268293
9.825408 7.4184608 0.20334041 7.5372648
9.7882862 -1.0346682 0.55948263 10.863776
9.7984772 3.3116705 0.63340515 11.304286
9.7856264 7.025671 0.54713464 10.298265
9.8085623 7.3602176 0.75058424 11.723785
9.7727451 -4.3252783 1.0168381 11.026
9.7641888 -1.0561951 0.96361917 12.184521
9.8981285 3.3874388 0.98775798 13.684194
9.846529 7.377368 0.97392428 11.588182
9.6046467 -4.3339181 1.412902 12.5
9.7208061 -1.0625066 1.2686042 13.136364
9.8398685 7.3475266 1.4156592 12.149274
9.6991568 -4.3328161 1.7919536 14.013
9.8394747 7.3300257 1.8055301 13.021893
9.6696529 18.579662 1.8679744 10.1215
9.7580566 -4.298234 2.0470719 13.705099
9.8175659 -3.8844612 2.1290169 14.006562
9.8039227 -3.406033 2.1320877 14.505312
9.8876266 -3.0832539 2.1248908 14.162035
9.7795324 -2.6850762 2.1365724 15.027974
9.8680658 -2.2260885 2.133455 15.109417
9.8463879 -1.8917181 2.1676316 15.00375
9.7764864 -1.5088204 2.1797907 14.66875
9.7432852 -1.084519 2.1869116 14.333751
9.8152132 7.3083634 2.2369778 13.876021
9.7821007 -0.99421585 2.4984417 15
9.938159 3.7494555 2.6472876 15.101001
9.7372484 6.1714573 2.5970614 14.440999
9.7969885 7.2918801 2.6328321 14.375
9.7866726 18.243876 2.5941701 11
9.793272 7.2779112 2.8893607 14.75
9.76476 18.131935 3.4523158 13.346778
9.7497339 17.259701 3.8813126 15
9.7982197 17.302361 4.59164 14.120584
10.148737 -3.8660891 -0.64734411 4
10.20832 -3.010828 -0.57147217 4
10.152557 -2.2715189 -0.63405341 3.3333333
10.201607 -1.7136686 -0.61463374 2.25
10.271875 -1.3574235 -0.58821762 2.25
10.246916 -1.0343238 -0.4820095 3.5791664
10.259214 -0.56406981 -0.59585744 3
10.252309 -0.19341117 -0.60793757 2.1538463
10.191282 0.23485127 -0.60104579 2.4615386
10.228065 0.61433738 -0.60034287 2.2857144
10.24075 0.98735458 -0.60649562 1.9
10.194324 1.3766718 -0.5998953 1.3333334
10.094983 1.7094717 -0.60194236 2
10.210214 2.2281549 -0.59519506 0.875
10.174924 2.6907933 -0.58969766 0.83333331
10.206533 3.0586565 -0.57108349 1.2727273
10.153525 3.4350619 -0.57629597 1.8571428
10.190476 3.808589 -0.56903785 1.75
10.240733 4.2422414 -0.55102456 2
10.279847 4.6132188 -0.55327064 2.5
10.275107 5.2878666 -0.53011787 3
10.241251 6.2281604 -0.56594878 4.6666665
10.184834 6.7437453 -0.50202739 4
10.167432 6.9724121 -0.48708913 1.1444443
10.098274 7.4228115 -0.46105582 2
10.194649 -1.0475838 -0.15571244 4.1599908
10.013268 3.175869 -0.33129686 3.0833335
10.030781 3.2458782 -0.094761252 5.25
10.291245 6.7334175 -0.2575103 2
10.292531 7.0095291 -0.19702409 3.6731482
10.089607 7.384603 -0.2155474 4.25
10.252971 -1.0330166 0.20514502 7.8567266
10.106015 3.3089039 0.23231192 8.2088327
10.317545 7.0124784 0.18617783 7.2302084
10.230713 7.4219623 0.19149812 7.3809519
10.206126 -3.8585029 0.72468692 10.025625
10.217263 -1.0378827 0.59737986 11.538285
10.07839 3.3329704 0.60376012 11.0509
10.221713 6.9997725 0.55523574 9.9683847
10.397926 7.5719566 0.78834641 12.09075
10.240194 -1.0582482 0.9612664 12.50969
10.239214 7.3821054 0.96000129 11.51483
10.353136 -3.8482149 1.3954017 13.026
10.225745 -1.0646217 1.2640276 13.31675
10.220542 7.3342137 1.4239466 12.451682
10.045484 6.8730488 1.9312236 14.1485
10.206376 7.3192887 1.8244125 12.833965
10.187559 -4.2443151 2.1294527 14.0415
10.200855 -3.8939254 2.138988 14.003751
10.184248 -3.3196549 2.1318974 15.000125
10.233181 -2.9239943 2.1436775 14.843972
10.280132 -2.5046146 2.15293 15.054584
10.067778 -2.3257163 2.1374288 15.163
10.091304 -1.9678702 2.1663482 14.0035
10.344807 -1.5689628 2.2057836 15.08375
10.2253 -1.0574268 2.2120724 14.586124
10.211089 7.2950358 2.218102 13.960171
10.334146 -0.99413013 2.6576459 15.087
10.152081 3.4491889 2.5975406 14.8999
10.054294 3.818861 2.4755034 14.10025
10.207587 7.2885342 2.5857506 14.100732
10.097151 18.229425 2.5842104 11
10.097616 3.5000312 2.8528273 15.0995
10.224718 7.2714777 2.8896792 14.5
10.180177 18.141966 3.2830651 12.069428
10.253872 17.293751 4.641191 14.12
10.575805 -4.3256865 -0.62567848 5
10.712512 -3.9507353 -0.60532397 5
10.652127 -2.0876245 -0.61326015 1.5
10.444001 -1.6771753 -0.61361742 3
10.576862 -1.0153192 -0.51014543 3.5833333
10.729348 -0.65157115 -0.59227741 2
10.657195 -0.1898825 -0.60368848 2.125
10.738297 0.20902704 -0.57004875 2.4285715
10.593012 0.65772867 -0.56189078 1.3571428
10.693035 1.0220697 -0.59873778 0.75
10.67723 1.4623522 -0.60048324 0.66666669
10.545028 1.8722723 -0.59383559 1
10.552985 2.0994911 -0.58254236 1.3333334
10.619002 2.5205402 -0.58513093 1.5555556
10.645418 2.9767873 -0.57679093 0.80000001
10.591362 3.3872521 -0.56235498 1.8333334
10.558413 3.751967 -0.56340742 2.125
10.538704 4.2759261 -0.56386387 3
10.612239 4.5644784 -0.54693019 2.3333333
10.682526 5.3323803 -0.51695591 3
10.621522 5.708519 -0.54470235 4
10.592502 6.7040129 -0.50758016 2.8
10.559926 6.9647708 -0.48564917 0.42857143
10.516944 7.3246188 -0.46264341 1.6666666
10.585007 -1.0519887 -0.14182833 4.397222
10.714652 0.24802646 -0.34848309 1.75
10.541541 0.66292548 -0.21382278 3.0625
10.566815 7.0328827 -0.17155492 3.824074
10.719312 7.4368711 -0.15362494 4.25
10.576938 -1.044147 0.22089981 7.8979025
10.525028 0.58974677 0.17722456 7.8408408
10.547692 7.0660911 0.19537663 7.3571429
10.583336 7.3912711 0.26565722 8.057785
10.574831 -1.0476309 0.60583019 11.434402
10.767632 -0.20265174 0.57303274 9.5
10.442803 0.57163894 0.59152669 12.266761
10.710253 0.82212055 0.73590177 13.0985
10.623212 7.0620513 0.53585351 10.040606
10.665085 7.4493394 0.75208235 11.059334
10.610489 -1.0611287 0.97863811 12.245964
10.621955 7.3396711 1.0093442 11.443233
10.511286 -1.0582603 1.2735244 13.264084
10.651249 7.3121252 1.4346371 12.530601
10.613109 7.3084326 1.8055264 13.621864
10.647676 -4.3293233 2.1520245 14
10.602629 -3.8163986 2.1573901 14.008571
10.613 -3.4821815 2.141593 14.182
10.676329 -2.9270434 2.1597304 15.01975
10.57064 -2.6730795 2.1571455 15
10.45735 -2.0177088 2.1465752 15.1645
10.756213 -1.002836 2.1573172 14.0865
10.600897 7.2877121 2.172713 13.884187
10.667221 -0.99253535 2.4748402 15.0865
10.439646 3.4153495 2.5283549 14.099
10.671516 3.8307338 2.5150743 14.30055
10.500916 4.1389532 2.5227497 14.101
10.609619 7.2772675 2.5531566 13.965249
10.509041 3.3413072 2.8509467 15.099
10.677057 5.043817 3.1528647 15.1025
10.630187 7.2877769 2.9499688 14.6154
10.556577 18.134634 3.2908566 12.097
10.706154 17.294119 4.6918302 14.11925
11.18057 -4.3289766 -0.58952332 5
11.108856 -2.5580606 -0.60131401 3
10.800196 -1.830649 -0.59674525 2
10.989575 -1.0700499 -0.46475846 3.674603
10.96934 -0.58528048 -0.61858982 1
10.959738 -0.15023252 -0.59660155 1.8
11.058603 0.11441532 -0.5890286 1.875
10.982378 0.60848874 -0.59016865 1.9285715
10.936225 1.0117373 -0.58928943 1.6666666
11.034668 1.370676 -0.58799803 1.5833334
10.974228 1.7396297 -0.58515102 2
10.985206 2.1684954 -0.58168221 1.75
10.983184 2.5546775 -0.56657487 1.6666666
10.958517 2.9799523 -0.56365883 1.2
11.005481 3.3993986 -0.56710213 1.8571428
11.012608 3.8298025 -0.54169333 1.75
10.989046 4.2474556 -0.54981679 2.75
11.025147 4.577774 -0.49722108 2
11.135328 5.0536189 -0.55668056 4
11.082819 5.5101919 -0.53914618 4
10.972152 6.5802031 -0.49968159 0
10.954713 7.0021214 -0.4577463 1.2261906
11.11857 7.2762094 -0.46047401 1.25
11.003312 -1.0729725 -0.17019472 4.1989417
11.192724 2.5538363 -0.039625645 5
11.05247 4.644052 -0.06633611 5.0666666
11.017686 4.8309417 -0.0020270348 1.5
11.09272 6.1332417 -0.017894302 4
10.919755 7.0160203 -0.17638583 3.5394738
11.049289 7.4151511 -0.26707736 3.5208333
10.998947 -1.0518354 0.17113459 7.3530478
10.824051 -0.24755681 0.16120465 7.5
11.186921 2.6054227 0.32174015 8.1485004
11.091588 4.6553121 0.20629835 7.0554485
11.025597 4.8165231 0.13266987 5
11.072867 5.9805679 0.33285761 8.911767
11.07395 6.1280866 0.21826698 7.3394041
10.892255 7.0221362 0.20609419 7.3703704
10.944483 7.4064307 0.13387111 6.8083329
11.01981 -1.0484977 0.59818232 10.504838
11.034472 -0.11063957 0.48519111 9.0345001
11.093672 4.6280308 0.43796763 10.66832
11.143796 4.9124179 0.46449742 13.006359
10.811249 7.1300578 0.50641614 10.25
11.002857 7.408864 0.65607864 10.694124
10.988779 -1.0737085 0.98377234 12.14306
10.970071 7.3504138 1.0339359 11.93362
11.016338 -1.0682808 1.2898521 12.960845
11.020928 7.2929578 1.4239498 12.24636
11.021172 7.3002114 1.8326533 13.005854
10.933039 -4.221735 2.1520836 14
10.990356 -3.8126619 2.1550689 14
11.081772 -3.298152 2.143543 15.084
10.97673 -2.9591057 2.1588948 15
10.99559 -2.7534876 2.1720128 15.006437
10.920017 -2.2498679 2.1734247 15.126062
11.166087 -1.6754252 2.1917911 15.0035
10.99575 -1.3931972 2.2169833 15.00225
10.89309 -1.0494872 2.2468264 15.029332
10.975616 7.2659082 2.1698275 13.419069
10.98857 -0.97101891 2.4079611 14.087
10.996018 7.263535 2.589323 14.188773
11.002007 7.2596855 2.9295337 14.5
10.934246 4.9358191 3.203295 15.102
10.924725 7.2972331 3.349335 15
10.940445 18.129145 3.3033545 12.121083
11.389763 -4.2723045 -0.63907993 5
11.421994 -2.9134638 -0.58980143 3
11.358013 -2.7962899 -0.58680904 3
11.591825 -2.2513893 -0.59084886 4
11.35958 -1.0276937 -0.50009334 3.4166667
11.38733 -0.60243636 -0.58764797 3.2307692
11.412426 -0.12487258 -0.58358681 2.8888888
11.465951 0.18479116 -0.58062798 2.5833333
11.384712 0.61605406 -0.58073282 1.8888888
11.380666 0.98130739 -0.57790917 1.8125
11.343555 1.3043885 -0.58658403 1.5454545
11.456622 1.7685701 -0.5446555 2.7222223
11.404876 2.263623 -0.53107566 1.6944443
11.472926 2.607075 -0.50521737 1.1666666
11.440901 3.0189338 -0.53863823 1.5
11.394461 3.3710546 -0.55323422 2
11.416411 3.8031971 -0.51094598 3.0714285
11.297971 4.0972099 -0.48631379 3.6666667
11.4731 4.532084 -0.49735636 1.4285715
11.445956 5.0272408 -0.53762537 4
11.394451 5.4454541 -0.53692204 4
11.526653 6.2466769 -0.43079549 1
11.399928 6.6491914 -0.45920521 0.11111111
11.366064 6.995492 -0.47222489 1.1
11.47537 7.3680501 -0.4286477 2.4285715
11.410066 -1.0768075 -0.16053765 4.3378787
11.56365 1.9616389 -0.15499096 5
11.360279 2.2868156 -0.074366875 4.75
11.365412 2.6222062 -0.078927673 3.8392856
11.540432 2.9863973 -0.06592501 4.75
11.354129 3.825639 -0.083535306 3.5261905
11.39117 4.2064176 -0.066125527 2.5
11.275079 4.4690056 -0.05237953 5.5928574
11.374166 5.9529085 -0.079674155 4.28125
11.394746 6.1320839 -0.1867138 2.9956522
11.413209 7.419642 -0.2409205 3.6523805
11.408264 -1.0527002 0.17762759 7.4978461
11.55489 1.8972993 0.098147266 6.5
11.356453 2.2801118 0.18469444 7.1160707
11.33745 2.5735214 0.20288453 7.0684905
11.52908 3.0401831 0.039725114 5.3333335
11.568002 3.4299495 0.1839031 6.6666665
11.318084 3.8053045 0.21982208 7.3398218
11.358982 4.1790104 0.12781048 4.4784856
11.341361 4.4641337 0.17059836 6.1309471
11.376889 5.9575686 0.1721171 6.9935265
11.391419 6.0688653 0.21768565 7.2786331
11.318297 7.4291382 0.19874172 7.3055553
11.412466 -1.0585269 0.58410984 11.026268
11.333332 2.2277894 0.40747255 9.1485004
11.523758 3.2306705 0.53563213 10.346625
11.204391 4.1353049 0.4444592 9.1359997
11.31844 4.557426 0.5867328 9.8152094
11.429382 6.1576486 0.53540868 10.503198
11.392677 7.4483576 0.62218791 10.658298
11.503422 7.6468458 0.7577554 10.108
11.38922 -1.0721409 1.0058898 12.079466
11.511136 3.3681836 0.98514777 13.411488
11.444629 7.286346 1.0153105 11.725288
11.24793 18.205088 1.1194979 9.1190004
11.38718 -1.078928 1.2800832 12.828115
11.422446 7.2769847 1.4213333 12.06895
11.415196 7.2831807 1.8263892 12.876431
11.274855 18.179235 1.8790491 10.1215
11.417234 -4.2894754 2.1767755 14
11.437793 -3.8930924 2.1684196 14
11.347101 -3.3570318 2.1505518 15.084625
11.377351 -3.1114218 2.1713572 15
11.371829 -2.6686592 2.1733341 15.056
11.394015 -1.4517055 2.2002125 15.0275
11.405782 7.255127 2.1968622 13.539569
11.310003 -0.9717949 2.6137753 14.0875
11.396545 7.248508 2.5710461 13.915112
11.412273 -0.99401343 2.979732 15.08725
11.251391 5.0244408 3.1879663 15.102375
11.434316 7.2634349 2.9973457 14.679375
11.561953 4.9143286 3.232178 15.102
11.547821 5.9533248 3.4697022 15.1035
11.377081 6.2478762 3.4664757 15.10425
11.442269 7.1266985 3.5158496 15
11.35875 7.2632651 3.4159298 15.026751
11.257675 18.14201 3.3590488 12.11975
11.657633 -4.3424625 -0.69922996 4.75
11.655236 -3.8400972 -0.58621633 6
11.845202 -2.0870974 -0.58040905 2.6666667
11.649723 -1.8116406 -0.59550864 3
11.984424 -1.2342561 -0.62794107 6
11.782327 -1.0824403 -0.48073006 3.5
11.841846 -0.61281848 -0.58516437 1.5
11.841647 -0.16936356 -0.58970058 2.25
11.848124 0.17500974 -0.57565266 2.090909
11.781664 0.64107496 -0.57689458 2.5999999
11.826023 1.0789876 -0.55741602 2.4583333
11.797507 1.447122 -0.51845354 2.9791667
11.800687 1.7652292 -0.49751058 1.72043
11.733098 2.2042942 -0.53879273 1.6862745
11.863854 2.6890571 -0.49386314 1.1875
11.788602 2.9605455 -0.45042655 1.7878788
11.738939 3.3607287 -0.48413277 3
11.872682 3.8703213 -0.4854621 3.6666667
11.844345 4.2551861 -0.53721499 4
11.805769 4.6540012 -0.4732075 1.2916667
11.694086 4.9037981 -0.50936073 4
11.638451 5.2572498 -0.52993876 4
11.826886 6.1713448 -0.43395245 1.8333333
11.810518 6.5939274 -0.42315307 0.625
11.817852 7.4468942 -0.42452684 2
11.784253 -1.1172721 -0.1944616 4.5985861
11.974313 1.1483331 -0.31269032 4.375
11.831722 1.4441406 -0.21231498 4.4434781
11.7497 1.7344174 -0.1909297 4.2331347
11.689187 2.2077963 -0.072195806 4.3333335
11.73273 2.6177399 -0.13701491 3.4479167
11.75072 2.9780102 -0.16817199 2.9151962
11.844877 3.24524 -0.13103703 3.875
11.838444 3.8684692 -0.20389454 4.875
11.854343 4.2269211 -0.13453826 1.9444444
11.793719 4.5994196 -0.18545118 3.0833333
11.984575 4.9297743 -0.26570639 2.8285716
11.621365 5.5394168 -0.014619678 5
11.66927 5.9518776 -0.10178494 4
11.818904 6.1630421 -0.13684806 3.4487178
11.62928 6.7033701 -0.29529089 2
11.711542 6.8813705 -0.36804977 2
11.746553 7.4256086 -0.081673726 5.4000001
11.956615 -4.2849131 0.33503225 8.1719999
11.759785 -1.0606711 0.20743784 7.6269655
11.942302 0.88450819 0.32316726 8.0497503
11.767236 1.5247792 0.2166515 7.4397936
11.766821 1.7261432 0.19411464 7.1390638
11.841472 2.1544132 0.35920176 8.7241554
11.702384 3.0630403 0.09287744 5.712338
11.905274 3.3382924 0.13240534 5.9274001
11.859768 3.8725951 0.21287124 7.4529715
11.801832 4.250504 0.15444167 5.6368008
11.706502 4.5489192 0.051366691 5.2037039
11.669752 5.4260678 0.37445095 9.152564
11.674995 5.70298 0.13707499 6.1753139
11.678686 6.1968417 0.19590692 6.9976482
11.782927 6.4718313 0.3502661 8.5764999
11.772353 7.4185114 0.23545575 7.0475717
11.953613 -4.2836332 0.61299109 9.1719999
11.785983 -1.0759631 0.5970636 10.930036
11.913204 1.0284555 0.49613941 9.4200096
11.848735 1.4161555 0.59016335 10.948321
11.761604 1.711736 0.52072763 10.150467
11.903104 2.1743577 0.5634234 10.416934
11.964151 2.464129 0.66203618 11.58725
11.858471 3.1958234 0.58432961 10.1405
11.975473 3.4470685 0.52053887 10.245302
11.944402 3.647105 0.57941723 11.070625
11.984112 4.3518977 0.53018415 11.248566
11.978358 4.4941978 0.66308624 13.58965
11.943042 5.0341144 0.59175086 9.5183897
11.719612 5.3817163 0.5281015 10.52459
11.968525 6.4902663 0.41668835 8.1315002
11.789004 7.4109044 0.63578302 9.5988693
11.73626 7.6721883 0.73490328 11.080999
11.942719 -4.2959051 1.1733277 11.172
11.998742 -3.3091042 1.0589271 10.0815
11.748095 -1.0854543 1.0045744 11.777659
11.910925 1.0599042 1.0293959 12.1375
11.848121 1.4076004 1.0598491 13.156003
11.833161 1.6880646 0.98649025 13.308364
11.809459 7.2762094 1.0264401 11.647985
11.970195 -4.2504978 1.4428921 12
11.784405 -1.0933107 1.2839121 12.91306
11.957674 1.0501266 1.2785251 12.134
11.826657 7.2648187 1.388395 12.344913
11.769951 7.2552505 1.8077028 12.782176
11.9304 18.173626 1.9650582 10.119
11.904536 -4.1591024 2.157377 14.000722
11.882745 -3.8452854 2.1923265 14
11.767345 -3.3571136 2.1638131 15.068151
11.760256 -3.0866389 2.1919956 15
11.720105 -2.6994622 2.1841052 15.059082
11.672085 -1.350098 2.2566402 14.751499
11.735113 -0.96929026 2.2808149 13.0875
11.79493 7.2509255 2.2062278 13.639935
11.772004 7.2384024 2.5908167 13.931236
11.954844 0.039917238 3.1928799 15.09
11.811146 7.198102 3.041954 15
11.777044 7.2700882 3.0142288 14.321249
11.717307 2.520272 3.2006686 15.096
11.648855 5.7527719 3.469698 15.103
11.880664 6.2595124 3.4992211 15.034667
11.766994 6.5391746 3.5020561 15
11.612915 6.8662567 3.5162265 15
11.794975 7.2619944 3.2968688 15.027124
11.672918 18.111824 3.3244166 12.1215
12.178144 -4.329495 -0.7012763 4.5
12.348793 -3.8019726 -0.61599928 4.5
12.13299 -2.3399498 -0.56793725 2
12.167799 -1.0626464 -0.48001933 3.5421054
12.155784 -0.64850998 -0.57401669 2.5882354
12.191134 -0.21892253 -0.56406742 2.090909
12.175514 0.22020666 -0.5598312 2.25
12.218425 0.63101429 -0.55947578 1.8461539
12.189167 1.0331218 -0.51047367 2.4236112
12.202346 1.332667 -0.50259566 2.7083333
12.166089 1.8172373 -0.53355235 0.8214286
12.159065 2.1787977 -0.52403516 1.84375
12.106441 2.5430787 -0.54435611 3
12.15643 2.9382348 -0.53049934 2.5
12.060696 3.2862661 -0.46928844 4
12.197553 3.7888565 -0.50186253 2.6666667
12.191795 4.2552004 -0.48913592 2
12.118292 4.7209482 -0.50585699 4
12.195633 4.9493461 -0.45703569 1.3333334
12.338928 5.2853312 -0.43858284 2.25
12.307819 5.6761127 -0.42370358 2.25
12.162595 6.112411 -0.44631174 1.3333334
12.115159 6.5709381 -0.44922519 1
12.125378 6.9660668 -0.4458271 2
12.292036 7.2625761 -0.43371946 2.3
12.30403 -3.7964211 -0.17852466 6
12.185654 -1.1155134 -0.17332458 4.0625
12.132601 1.1245899 -0.18848675 4.9212966
12.159817 1.3033838 -0.15620583 4.1880341
12.258346 1.9650176 -0.079643443 4
12.325196 2.0993452 -0.14236397 2.659091
12.312757 2.6016076 -0.097124621 6
12.06134 2.9640381 -0.10886981 2.7
12.088977 3.2674797 -0.24127293 1.7857143
12.159053 3.8662102 -0.20995171 2.3690474
12.241965 4.1313996 -0.18994769 1.3197116
12.066952 4.7024574 -0.23831885 2.3333333
12.134335 4.9643469 -0.24179058 1.9116327
12.216175 5.3240643 -0.21801014 2.2030075
12.070355 5.6719151 -0.067098893 4
12.254632 6.2046552 -0.19851719 3.1904762
12.217085 -4.201088 0.35161546 8.0991068
12.2623 -3.9261308 0.15034178 7.25
12.169069 -1.0597166 0.19332308 7.4489522
12.157087 1.1084074 0.19339471 7.2763624
12.135026 1.3227445 0.21494345 7.4452934
12.239678 1.9077477 0.18676719 6.8412046
12.198007 2.1200511 0.32483476 8.2824173
12.172624 2.6547923 0.3398501 8.4983034
12.24138 3.0190744 0.33345217 8.3887177
12.153725 3.3637302 0.20241192 6.5765114
12.140886 3.8127832 0.23103356 7.6772909
12.205227 4.18256 0.11306029 5.3007517
12.179661 4.5610371 0.23441204 6.8523273
12.300325 5.0289974 0.17037459 6.1423249
12.22864 5.4273539 0.12341116 5.5999999
12.256001 5.9000831 0.31756139 7.8373747
12.246441 6.1951036 0.10634901 5.9555559
12.185906 6.412344 0.19991814 7
12.294997 7.4306035 0.17685556 6.9395714
12.18942 -4.2724986 0.64733982 9.1041002
12.058905 -3.3054724 0.63063097 9.0817499
12.048886 -3.0034094 0.62603152 9.0827503
12.200839 -1.0696064 0.57518291 10.182683
12.186666 0.73395395 0.58844107 9.9884348
12.1567 0.99870455 0.60467154 9.6679354
12.163233 1.3565458 0.57606852 10.022911
12.28831 1.7757747 0.54944897 10.288371
12.244582 2.1959379 0.54041857 9.9531069
12.222427 2.5999141 0.53845257 10.102691
12.320136 2.9448247 0.56434643 10.425047
12.204244 3.3945477 0.57824922 10.020053
12.290894 3.8349669 0.60825533 10.600893
12.047409 4.3622422 0.51263148 10.571428
12.195292 4.5931406 0.57264614 10.700315
12.297168 4.96033 0.54237533 9.8015871
12.359355 5.4206142 0.56816226 10.044095
12.251746 5.7562056 0.5925982 10.339578
12.175267 6.164937 0.59214884 10.5239
12.129301 6.5284996 0.55615872 10.176337
12.249557 7.3896065 0.70002794 9.8587923
12.217787 -4.2101121 0.9601531 10.217322
12.192759 -1.0812155 0.98639649 11.838528
12.290472 0.74761218 0.88431466 11.151361
12.189404 0.98497039 1.011054 12.07586
12.180075 1.4162278 1.0143272 12.60063
12.215395 1.7398937 0.93377948 11.940942
12.053242 2.0376804 0.81856412 12.019601
12.157084 3.3527892 0.81661588 13.099177
12.203904 7.2770987 1.0154529 11.738422
12.1994 -4.3324566 1.4135998 11.5
12.292689 -3.8380148 1.3347918 11.890834
12.181931 -1.0992569 1.3029265 13.083908
12.123058 1.0753014 1.2759343 12.509178
12.166482 1.2744235 1.2578106 12.877038
12.193674 7.2625685 1.3731278 12.40688
12.160831 -4.339808 1.8275537 13
12.185926 7.2592263 1.8086647 12.81488
12.365944 18.170872 1.9862121 10.1185
12.238361 -4.2440128 2.1212108 14.000683
12.1647 -3.7620766 2.1821115 14.4
12.142923 -3.3603623 2.1785133 15
12.109747 -2.9735706 2.1974111 15.1029
12.231994 -2.6281295 2.2113535 15.009
12.374504 -1.7157205 2.2849455 15.083
12.286991 -0.99612534 2.3445222 14.0865
12.318777 7.1901093 2.0336795 13
12.208919 7.2454019 2.1722081 13.780066
12.266234 -1.0242196 2.4274223 15.086
12.286448 3.6672559 2.6464238 14.599751
12.111835 6.1132765 2.5693154 13.10375
12.293959 7.1965427 2.7050872 15
12.196501 7.2331672 2.5906472 13.861588
12.146267 7.1846642 3.1087852 15
12.195461 7.2276516 2.9555166 14.580056
12.280973 2.573421 3.2303305 15.096
12.084051 4.6629519 3.4593325 15.1005
12.018837 4.8805399 3.4645088 15.101
12.133353 5.9356527 3.5114598 15.103375
12.048144 6.113811 3.4971764 15.104
12.262277 7.2771878 3.402462 14.701833
12.518265 -4.1014881 -0.6354692 5
12.512708 -3.7469523 -0.56001633 5
12.632989 -3.5132828 -0.71553427 4
12.615651 -2.770314 -0.57832593 4
12.503284 -1.8203182 -0.56210607 1
12.608032 -1.3043036 -0.50739473 2.6296296
12.549525 -1.1093789 -0.46767929 3.8399999
12.55395 -0.636572 -0.56330401 2.6923077
12.629848 -0.18491958 -0.55724913 3.5
12.593479 0.29683629 -0.55322546 1.9090909
12.618929 0.59446782 -0.54820013 1.4
12.669588 0.98664272 -0.54453343 1.4444444
12.602186 1.432705 -0.53585619 1.1111112
12.55584 1.7431279 -0.50244737 1.6538461
12.448138 2.1381762 -0.49279907 1.1666666
12.705439 2.5752444 -0.52919143 2
12.552866 3.0691919 -0.50325954 1.625
12.737112 3.4411759 -0.50420535 1.5
12.452192 3.8487101 -0.55742109 4
12.633947 5.3842063 -0.45857614 2
12.560717 5.9139843 -0.46675456 0
12.611008 6.143877 -0.43164816 2.3333333
12.63714 7.0093851 -0.4364768 1.4
12.767003 -1.2108723 -0.1468894 4
12.619453 -1.1402135 -0.17543758 4.3095241
12.620025 1.9281161 -0.18598482 3.6099999
12.500478 2.0897877 -0.14698046 2.7307692
12.705854 2.5768249 -0.092665359 3.25
12.724866 3.0241921 -0.07433717 2.4791665
12.657992 3.4126148 -0.16607507 4.6666665
12.710909 4.2168741 -0.14915727 0.375
12.424237 5.3390307 -0.21985357 2.1666667
12.641192 6.1873703 -0.22077543 4.1666665
12.668166 6.5891638 -0.36194581 1.1428572
12.653432 7.3705268 -0.2107781 4.1111112
12.546717 -4.2980914 0.22699094 7.5454545
12.461254 -3.8049674 0.20598808 7.4615383
12.637481 -1.0668254 0.21058652 7.4208078
12.510832 1.0973449 0.34766257 8.8711939
12.412381 1.3078184 0.28961548 8.1751251
12.642132 1.8961091 0.15811358 6.3968258
12.677571 2.1516197 0.25631618 7.5046997
12.564249 2.6137037 0.26011309 7.30725
12.668562 3.0070102 0.19102272 6.2341876
12.720754 3.3665199 0.13479201 5.523809
12.656446 3.9204192 0.26085013 6.9337206
12.637381 4.2397442 0.25300929 6.7353673
12.680126 4.5638752 0.31244683 7.6944418
12.632291 4.9941192 0.26028872 7
12.572134 5.3798923 0.17760488 5.8888888
12.46496 5.7449589 0.33444351 7.75
12.634265 6.2793097 0.14153874 6
12.637639 7.4276242 0.16941714 6.569047
12.583188 -4.3082275 0.66575801 9.2857141
12.454512 -3.8015122 0.6236552 9
12.612483 -1.0850111 0.60676157 10.776278
12.480628 0.72455728 0.67688173 11.404083
12.513009 0.9871096 0.59919691 10.41676
12.491306 1.4098394 0.60197425 10.257529
12.474134 1.733032 0.46798921 9.4979267
12.416896 3.024946 0.66125733 11.461202
12.418266 3.3099775 0.53228927 9.401125
12.423061 3.7032533 0.45598775 9.1420002
12.50949 4.3041377 0.58987921 10.746396
12.520004 4.4953465 0.51623869 9.8070583
12.402546 4.9459953 0.48837456 8.1560001
12.408766 5.5457926 0.45170975 9
12.408226 5.8172908 0.47164139 8.8277855
12.597651 7.4149184 0.64072943 9.8259859
12.534531 -4.261096 0.95625114 10.230769
12.457697 -3.8033459 0.95458233 10.222222
12.653462 -1.07498 1.0145727 11.978571
12.413925 0.71753401 0.92818129 13
12.458682 1.1109395 0.95565313 11.793606
12.451967 1.45823 1.0051059 13.152884
12.435894 1.7177917 0.98502457 13.160412
12.590967 7.2727847 1.0283542 11.57171
12.637816 -4.3361907 1.4038202 11.736842
12.451745 -3.8258271 1.2372614 11.142858
12.596106 -1.0766751 1.3239456 13.105666
12.50222 7.1937966 1.2831156 14
12.602096 7.258327 1.3514167 12.095769
12.550611 -4.2483091 1.8462582 13.03125
12.601855 7.2531738 1.7901448 12.243454
12.587317 -4.2225323 2.1739402 14.000673
12.625669 -3.738816 2.2202668 14.102625
12.639668 -3.5004833 2.1881995 15
12.526276 -3.0105355 2.1932607 15
12.572597 -2.5484581 2.2251732 15.010375
12.467542 -2.1750944 2.2326121 14.028
12.530059 -1.3580712 2.2362704 14.085125
12.477808 -1.0013707 2.309751 14.0865
12.587027 7.2551484 2.2237649 13.746047
12.488993 -1.0110066 2.6609859 14.58675
12.763288 1.1432799 2.630055 14.0925
12.711599 3.6684022 2.5629828 13.098
12.724607 6.1925211 2.6573534 14.106
12.514745 7.1932287 2.7483258 15.11725
12.616339 7.2354107 2.5820312 13.839263
12.751184 18.183155 2.7499804 11.11775
12.690807 -1.020159 2.9239912 14.58725
12.607088 7.1945314 3.0670562 15.1095
12.63577 7.2294531 2.9934893 14
12.494544 0.064450666 3.2240005 15.09
12.516 2.4281187 3.3241017 15.0955
12.667568 3.1881869 3.4890504 15.097
12.57979 3.5175607 3.4890554 15.09775
12.447382 3.8336964 3.4787154 15.0985
12.611017 7.0125141 3.5536318 15
12.667908 7.2941861 3.3324621 14.300786
13.195819 -4.3109617 -0.8206718 4
13.009705 -4.2854104 -0.54488498 4.25
12.883186 -3.7576444 -0.48605275 2.75
12.915877 -3.5264065 -0.66715735 3.6666667
12.96664 -2.8468144 -0.55530524 3
12.977556 -2.487711 -0.54116344 0
13.045243 -1.7058239 -0.57189566 3
12.982994 -1.3702549 -0.51893479 2.1666667
13.024137 -0.98054433 -0.49226934 3.28125
13.000981 -0.65199745 -0.54595703 2.1428571
12.945795 -0.20512286 -0.54214996 2
12.983413 0.20059189 -0.54541796 2.5384614
12.979897 0.57625282 -0.54664618 2.125
13.003079 0.91894394 -0.54138416 2.2727273
13.045169 1.4253809 -0.53533804 1.4
12.921767 1.7919807 -0.52507949 3
12.960389 2.1753964 -0.45849502 1.7888889
12.988837 2.5710971 -0.50240618 2.2857144
13.026021 3.0217776 -0.47371864 3.0714285
13.169178 3.4544764 -0.52295458 4
13.034786 3.8020954 -0.48677939 2.25
13.141706 4.0309544 -0.47189379 3
12.987061 4.562685 -0.47593412 3
12.914824 5.6667867 -0.44468102 1.3333334
12.985687 6.1964054 -0.43084919 0.5
13.101886 6.6726866 -0.43793079 0.25
13.010045 7.098269 -0.41837189 1.3333334
12.962115 -4.2764115 -0.21759793 5.7857141
12.871886 -3.8151386 -0.12980184 5.25
12.806047 -1.2541822 -0.31302986 2
13.011926 -1.0335633 -0.1893369 4.428205
12.997128 2.1864338 -0.11662263 3.6210527
12.919296 2.5748365 -0.13234963 2.7444446
13.020914 3.0811362 -0.31732672 3.9333332
12.929793 3.4891517 -0.016620131 2.9166667
12.994495 3.8755751 -0.016171427 2.0769231
12.854239 4.1207557 -0.31527868 4
13.115163 5.857296 -0.011451155 6
13.034077 6.1065664 -0.30133647 1
13.123186 6.5508461 -0.37622494 1.5
12.887912 7.1671348 -0.3280611 3.4000001
13.019689 7.4086795 -0.16375184 3.9950984
13.002488 -4.3132415 0.21042904 7.478261
12.849792 -3.8412161 0.050295115 6.5
12.98049 -1.0319774 0.20841406 7.3794789
13.048374 2.2146838 0.21519704 7.0034957
12.986279 2.6193922 0.12029057 5.6093745
12.949742 2.9269748 0.042612828 3.75
13.026891 3.5112536 0.17227092 5.4365592
13.042165 3.8289564 0.17236485 5.0082431
12.815282 4.0891228 0.26736313 7
12.82125 4.6769309 0.28195745 7
12.976942 4.9713368 0.15623349 5.3555551
13.169091 5.2543964 0.16919996 5.5648146
13.089745 5.8626108 0.17558973 5.515306
13.151656 6.1492229 0.19050714 6.1071429
12.980634 7.4205241 0.14548194 6.3636365
13.003539 -4.3240995 0.65993363 9.272727
12.964622 -1.0418308 0.59822887 10.174193
13.078151 2.3157935 0.57079071 10.622345
13.05892 2.4398885 0.65870076 11.981241
13.073003 3.522037 0.49776369 10.201294
13.105648 3.8013968 0.51606822 10.728248
13.166427 5.3079615 0.46195903 8.700429
13.155469 5.8976617 0.4527159 9.125
13.156743 6.1465964 0.45377171 8.7943392
13.004686 7.4032416 0.60162091 9.4815321
12.98831 -4.3416991 0.98944539 10.538462
12.963952 -1.0430553 1.0271997 11.406652
12.879057 7.1961637 1.0552974 12
12.931043 7.3374805 1.0301789 11.873418
13.079843 -4.3426309 1.4278558 12.041667
12.953847 -1.0315436 1.3714448 12.599032
12.858515 7.1946902 1.358516 13
12.940359 7.3197236 1.3313864 12.620625
13.074165 -4.2465262 1.8593577 13.25
13.004835 -1.027761 1.8440582 12.899417
12.939808 7.2814636 1.820935 12.19268
12.970459 -4.2757254 2.1759005 14
13.009031 -3.8340266 2.1891875 14.75
13.093778 -3.5852005 2.2349267 14
12.955154 -3.0649991 2.2079408 15
13.003613 -2.4915221 2.2362056 15.009001
13.00774 -1.0291663 2.1208041 13.462409
12.888046 7.1992264 2.3931248 13
12.940405 7.2856469 2.2016628 13.602248
12.816125 18.168772 2.0087116 10.118
13.053163 -1.0094625 2.5173585 14.004375
13.134398 1.1077302 2.6717362 15.0925
12.939547 3.6534278 2.6468036 14.099
13.082073 6.1913953 2.6287072 14.10875
12.978815 7.3046637 2.5901043 14.614073
12.9809 18.159454 2.7355604 11.118125
13.078478 -1.0017331 2.8948517 14
12.877831 7.1909103 2.9235065 14.741834
12.96573 7.2497187 2.934298 13.5
13.004629 -0.96428788 3.4246049 15.087749
13.075855 -0.52926105 3.4961185 15.08875
13.083972 -0.16481768 3.4954753 15.0895
13.08513 0.61034024 3.4993622 15.091249
13.0706 1.0669566 3.503247 15.09225
13.058166 1.4098941 3.5084236 15.093
12.955143 2.2036402 3.5103734 15.094749
13.18298 3.3720419 3.5369141 15.09725
13.06522 3.731328 3.5161872 15.098125
13.073894 6.2389755 3.5528393 15.10375
12.856121 6.6573815 3.5590751 15
13.056251 7.2766728 3.4214084 14.443571
13.265509 -4.3044024 -0.51031017 4.5999999
13.588732 -3.6727118 -0.4254266 3
13.514684 -3.4691541 -0.52846706 2
13.333139 -2.8514323 -0.5334692 2.5
13.437043 -2.5599382 -0.51890332 0.33333334
13.512447 -2.2385924 -0.55428356 3.3333333
13.471724 -1.7707891 -0.55810654 3
13.471931 -1.4394561 -0.57219994 4.5
13.345781 -0.92129946 -0.53801322 2.8
13.411196 -0.6140449 -0.54362386 2.75
13.397175 -0.20062391 -0.55051172 3.25
13.407093 0.16049464 -0.52934605 2
13.44277 0.66936165 -0.52682525 1.3076923
13.353301 0.98158789 -0.52316839 2
13.339574 1.3074415 -0.51564771 1.1666666
13.350777 1.799078 -0.50904894 1.7142857
13.454786 2.2998922 -0.48255098 1.25
13.398353 2.6620121 -0.46508986 1.4285715
13.435091 3.019757 -0.48368841 2
13.364164 3.3417895 -0.4842996 1.5
13.398409 3.7758527 -0.47408658 2.5
13.301651 4.1199613 -0.46184146 3
13.374621 4.7012596 -0.44833052 3
13.417297 5.8782768 -0.4463892 2.25
13.46143 6.5964737 -0.41630125 0.66666669
13.247169 6.9645376 -0.40194741 2
13.276067 -4.3199677 -0.22881889 5.6799998
13.597397 -3.4317751 -0.21627463 4.25
13.315907 2.3345122 -0.072767511 3.6333337
13.410698 2.6292202 -0.088282034 2.2904763
13.43275 2.8430285 -0.020136293 1.5714285
13.380247 5.1218367 -0.3161608 4
13.379627 5.3492785 -0.36644399 4
13.315093 6.2824335 -0.39721578 0.625
13.562157 6.4020014 -0.39410779 1
13.461651 7.075388 -0.2543129 2.2628207
13.495411 7.3965063 -0.15349123 3.6851854
13.398959 -4.2438498 0.23331371 7.6097002
13.571717 -3.4369757 0.21504517 7.5
13.260936 2.2752156 0.2241493 6.7702842
13.441763 2.6181211 0.22310631 6.3350887
13.368863 2.830498 0.25405896 6.4066143
13.415481 4.7786665 0.033193041 4.75
13.495059 5.0452514 0.21343648 6.1176472
13.417949 5.2482848 0.23679161 6.5062652
13.209391 6.1230154 0.14961208 5.375
13.410652 7.4145002 0.12876347 6.1437502
13.365442 -4.303442 0.67376363 9.75
13.551985 -3.8155274 0.64638627 10.5
13.560463 -3.4511056 0.61250275 10.5
13.413574 2.5781939 0.45982483 9.6860113
13.280763 2.8701558 0.43752477 9.8761253
13.332323 5.2971973 0.49735975 9.5000887
13.203835 6.0337167 0.56797874 10.103874
13.438183 7.3980541 0.62895721 9.1296301
13.37568 -4.3079476 1.0099124 11.777778
13.543919 -3.8291979 1.0198131 12.5
13.536263 -3.4706962 1.0689344 12.8495
13.443419 7.3883858 1.0315223 11.177959
13.293198 -4.3187585 1.3904133 12.333333
13.543432 -3.439939 1.2244191 14
13.59061 -2.2082982 1.480424 12.510875
13.38055 7.3751216 1.3484937 11.919051
13.527373 18.063137 1.2192045 9
13.210856 -4.310874 1.7905157 13
13.583556 -2.2139597 1.7298192 13.0145
13.427477 7.3611298 1.8022398 11.96412
13.468137 18.086926 1.9806757 10.078167
13.282463 -4.2510772 2.1692529 14.106199
13.357766 -3.879967 2.2415152 14
13.351613 -3.3475189 2.2258425 14.5
13.340141 -2.8455353 2.2390838 15
13.493188 -2.6467197 2.2443142 15.004143
13.590576 -2.1727471 2.1137011 15
13.500953 -1.3194479 2.2277493 13.086
13.579842 -1.0584393 2.2509007 14.0355
13.416413 7.3654432 2.2492223 13.375337
13.579494 18.097784 2.0473647 10.542376
13.489515 -1.0147336 2.5503502 15.0355
13.263718 1.1934228 2.5801046 13.0925
13.41927 7.3604178 2.5892508 13.753028
13.517598 18.063261 2.6379621 11.515
13.276263 -1.0193341 2.9619615 14
13.407506 -0.05582739 3.1995037 15.0895
13.433297 7.3456578 2.9956312 13.764469
13.547183 0.13217621 3.2377965 15
13.597793 1.3618075 3.5417559 15
13.583838 1.6523293 3.5480471 15
13.52798 2.2813058 3.5467048 15
13.312227 2.4572062 3.2498062 15.0955
13.313118 3.0902557 3.533443 15.096625
13.212374 3.4568453 3.5152147 15.0975
13.43874 4.8862333 3.3102043 15.05075
13.355841 7.0929232 3.5320184 14.5
13.373516 7.2720509 3.3779595 14.345361
13.889552 -3.740598 -0.44450286 5
13.81153 -3.4032502 -0.50587571 2.625
13.714969 -2.5744431 -0.49200454 1
13.83488 -2.1518025 -0.4792352 2.1923077
13.816921 -1.8486607 -0.5209502 1
13.734558 -1.3888214 -0.53032255 1.5
13.849432 -0.9727816 -0.48703757 2.8103449
13.793154 -0.54715598 -0.50431776 2.5999999
13.736414 -0.11201564 -0.51284868 2.2
13.806593 0.18683961 -0.5110532 2.2
13.842774 0.6620881 -0.50256389 1.625
13.827909 1.0935009 -0.50221366 1.1
13.846086 1.3857608 -0.49064347 1.8333334
13.913875 1.8265902 -0.49092054 1.6
13.769876 2.2118297 -0.49120659 2
13.879684 2.6421826 -0.47929677 0.66666669
13.674715 3.0109344 -0.49636865 2
13.788956 3.2724557 -0.46875179 1.125
13.759237 3.8089628 -0.46369135 1.5
13.806484 4.1548061 -0.44987065 2.5
13.795253 4.5598927 -0.43560582 3
13.74123 4.8247371 -0.44566849 3
13.60607 5.9781075 -0.41585702 4
13.829006 6.0042381 -0.40947542 0
13.862455 6.4608212 -0.40926033 0
13.850061 -3.7913458 -0.22020586 5.7142859
13.829516 -3.4706116 -0.243312 3.9722223
13.744049 -2.6145916 -0.19779909 3.45
13.819601 -2.117887 -0.18531314 4.3863635
13.95105 -1.8572073 -0.13643776 4
13.935269 -1.3858341 -0.08539518 4.0555558
13.921783 -1.0510346 -0.1561773 4.2134471
13.83237 6.5971346 -0.38678277 1
13.833994 7.1421227 -0.17550091 3.0416665
13.66459 7.3959045 -0.22329663 2.8666666
13.840512 -3.7820415 0.22133142 7.375
13.796537 -3.4644687 0.25446868 7.6509585
13.731383 -2.6007149 0.21452628 7.375
13.825815 -2.1043971 0.230349 7.3439193
13.947681 -1.7132132 0.22811057 7.396296
13.91727 -1.3821732 0.21625279 7.2899699
13.917477 -1.0507071 0.20034517 7.1875567
13.806566 7.1682701 0.19648962 6.4404759
13.688114 7.3606825 0.15208711 5.7727275
13.923062 -3.6400669 0.74775916 11.0415
13.814303 -3.4328704 0.62673157 10.40815
13.720985 -2.5884767 0.61589932 11
13.866622 -2.101608 0.63513821 11.277779
13.894323 -1.7293501 0.61333984 10.749895
13.904129 -1.3758956 0.60369176 10.385473
13.887593 -1.0649611 0.59390926 10.223921
13.806726 7.138967 0.57396489 9.4380465
13.665505 7.3703179 0.5970723 9.5
13.796551 -3.4569113 1.0399444 11.719375
13.691897 -2.5079463 0.88940787 13
13.762226 -2.1315148 0.98117518 12.55922
13.925419 -1.7607696 0.88439441 13.330399
13.870296 -1.4222559 1.0197734 12.429705
13.900715 -1.0656075 0.98649389 11.851585
13.793161 7.1404142 1.0338553 11.837473
13.698692 7.3452744 1.0261784 11.05
13.758444 -4.3672934 1.5745647 12.125
13.733867 -3.4811029 1.2353687 13.847
13.773809 -2.1392047 1.3629098 12.636364
13.84498 -1.3742281 1.3016102 12.6875
13.904416 -1.0552748 1.3436092 12.794661
13.841825 7.134057 1.3491144 11.229952
13.688871 7.3451777 1.3746215 11.911316
13.921315 17.970848 1.2749757 9
13.70578 18.031981 1.2499366 9.0585003
13.725721 -4.3698673 1.905751 13.25
13.602756 -2.7088728 1.9785529 14.0145
13.75178 -2.1312456 1.7733781 14.152021
13.903001 -1.0533231 1.8508118 12.827714
13.812739 7.1290703 1.8261089 12.575
13.712111 7.3240447 1.8473396 12.309478
13.951607 17.933723 1.9805493 10.116
13.742595 18.049664 1.9897639 10
13.847464 -4.3382812 2.1747499 13.803676
13.826123 -3.8452106 2.2409098 14.340714
13.764739 -3.3257484 2.247436 14.298
13.683048 -3.0722477 2.2177742 13.028249
13.648041 -2.6731789 2.0191574 14
13.609497 -2.1569929 2.112865 15
13.728593 -1.7933556 2.2900457 14.584625
13.810174 -1.4479694 2.2925467 14.752915
13.914474 -1.0368515 2.2020907 13.188416
13.845357 7.1292071 2.1976933 13.745371
13.708636 7.3203435 2.2230518 13.476947
13.938706 18.001656 2.0544736 10
13.758698 -1.8100455 2.700119 13.585501
13.81011 -1.3588042 2.6624811 13.83625
13.855932 -0.9659791 2.6285489 14.208651
13.842061 -0.61655223 2.6686685 13.857142
13.85023 -0.29051301 2.6773422 14.599142
13.848396 0.19707222 2.6762512 14.348332
13.817728 0.55056149 2.6671448 13.686806
13.841751 0.97467613 2.638509 13.441679
13.79701 1.3526132 2.6378942 13.441857
13.766568 1.7344055 2.668824 13.682334
13.735612 2.173125 2.6488016 13.125
13.744508 2.6315193 2.6986737 13.428572
13.744246 2.9770553 2.7168255 13.4
13.734542 3.4094574 2.6915522 13
13.741612 3.7845476 2.724952 13
13.805181 4.2128067 2.7416477 13.2
13.772245 4.5938349 2.7330766 13.2
13.829247 5.0027709 2.7238038 13.300035
13.786915 5.3992829 2.7069821 13.52575
13.840879 5.7809129 2.6958246 13.75
13.830089 6.2211447 2.7044358 13.221049
13.858992 6.6391172 2.7162797 13.831625
13.813124 7.0945611 2.5735221 14.005411
13.720321 7.3156252 2.5729995 14.129041
13.884623 17.847208 2.5272062 11.827312
13.767891 -1.678467 2.9771082 14.086
13.752602 -1.4271944 2.9472706 14.586
13.713506 -0.94613564 3.0156133 14.317401
13.742375 -0.62172663 3.0284495 14.298179
13.759892 -0.19585338 3.0490499 14.142858
13.713655 0.18556732 2.9994783 14.454361
13.72285 0.58628339 3.0528073 14.285714
13.738503 0.99101436 3.0544124 14.209175
13.713839 1.3770312 3.0519772 14.353945
13.723971 1.7685146 3.0099933 14.455464
13.756497 2.2030542 3.0480254 14.166667
13.754445 2.5814955 3.1079433 14.333333
13.763296 2.9787736 3.0653901 14.21945
13.752817 3.4038532 3.0221999 14.274563
13.745058 3.7736866 3.0052953 14.109924
13.744659 4.258069 3.0052207 14.5
13.757213 4.5648274 2.988863 14.314429
13.77585 5.0214448 2.996218 14.137844
13.771629 5.3864613 3.0085068 14.22065
13.796206 5.7968073 2.9737456 13.785269
13.804171 6.1633358 2.9600785 13.915281
13.813656 6.5339832 2.9937105 13.813806
13.825783 7.0065436 2.970679 13.710699
13.748589 7.3069329 2.9603465 13.56925
13.989761 17.849045 2.8338838 11.1165
13.933458 18.001507 2.8444295 11
13.763202 -1.8953667 3.4049084 15.085334
13.687424 -0.93882334 3.4271724 15
13.673454 -0.6448223 3.4396055 15
13.692859 -0.25330493 3.4675598 15
13.679699 0.29527035 3.4410427 15
13.674435 0.60509932 3.4689708 15
13.650152 1.0573246 3.4266675 15
13.672028 1.377184 3.4117837 15
13.670326 1.8026252 3.4270239 15
13.717867 2.1456428 3.3285127 14.6
13.687713 2.5369699 3.254837 14.333333
13.727369 2.9479997 3.3046002 14.75
13.75766 3.3974495 3.3006046 14.5
13.74095 3.7830067 3.3670857 14.75
13.772716 4.1921463 3.3272095 14.4
13.755204 4.564826 3.330081 14.5
13.693279 4.871769 3.3727055 15
13.80055 5.7758913 3.3711202 14.300536
13.80904 6.1961155 3.4387884 14.373136
13.767914 6.6119633 3.42804 14.245472
13.797678 7.0142012 3.3902135 14.477924
13.711631 7.2711878 3.3844101 14.142858
14.26364 -4.2125711 -0.42290318 5
14.392928 -3.7412109 -0.70989054 4
14.368329 -3.520385 -0.5778296 4
14.376339 -2.8867824 -0.52314502 4
14.159538 -2.5659888 -0.47641978 0.5
14.16816 -2.1830359 -0.50472641 3.25
14.326835 -1.8236347 -0.50836354 2
14.34802 -1.2874154 -0.4999136 2.3333333
14.150094 -1.0273092 -0.4818126 3.2222223
14.160098 -0.60255843 -0.5084995 2
14.151367 -0.19942012 -0.51260281 2.25
14.179864 0.13425042 -0.50713402 1.5833334
14.196658 0.60442513 -0.50179088 1.1
14.208828 1.0312774 -0.4965049 1.2222222
14.207898 1.3474227 -0.50026786 2.6666667
14.15181 1.8028952 -0.47889107 1
14.260486 2.1772435 -0.47194004 0.40000001
14.093359 2.605937 -0.4663938 1.2
14.222096 2.9722841 -0.45794958 0.89999998
14.18795 3.4998786 -0.44635716 1.4
14.268687 3.6402533 -0.43181178 2
14.147808 4.1476908 -0.43549675 2
14.270367 4.5796242 -0.41275793 3
14.118105 5.0635085 -0.4264428 3
14.12209 5.6016898 -0.42122731 4
14.024068 6.0273294 -0.40160838 0
14.129429 6.4972911 -0.40134734 0
14.03651 7.0341015 -0.42634276 0
14.254259 -4.2938032 -0.15193808 6
14.35461 -3.7708061 -0.28496826 5.3333335
14.126822 -2.6072118 -0.17460868 3.375
14.067421 -2.1542728 -0.18420783 3.7711322
14.015781 -1.8109992 -0.085091025 3.25
14.004534 -1.3525529 -0.082252145 2.5
14.050247 -1.069392 -0.1967833 3.6704545
14.205725 5.730278 -0.39976224 4
14.218798 6.0415244 -0.39513102 0
14.269241 6.4905663 -0.3827076 0.5
14.164572 7.0998855 -0.2488427 2.2500002
14.273463 7.3525181 -0.17122726 3.15873
14.248289 -3.8531592 0.3566857 7.9488888
14.111326 -2.6276705 0.18478224 6.75
14.059251 -2.1576231 0.15614264 6.8333335
14.033091 -1.7894313 0.39306417 9
14.064561 -1.0553682 0.21476395 7.2997432
14.14913 7.157959 0.17958942 5.8928571
14.241844 7.3646197 0.2176562 6.34375
14.1387 -3.7266579 0.52463543 8.6732502
14.071904 -3.5769234 0.78399587 9.6794996
14.104367 -2.5928361 0.58645278 10.333334
14.078334 -2.2586496 0.54555982 10.312055
14.052136 -1.7773396 0.68224496 10.588917
14.007553 -1.4774556 0.63975298 11.5
14.078359 -1.0660185 0.59592903 11.668269
14.096243 7.1540241 0.60011476 9.3512821
14.218888 7.3513246 0.61302382 9.4059134
14.14486 -4.0293684 1.0020152 10.294875
14.139861 -3.6478372 1.1126697 10.884625
14.213032 -3.4682417 1.0432552 10.686722
14.07837 -2.8583813 1.014185 13.0405
14.093337 -2.5967181 0.98217982 12.786499
14.057691 -2.2709382 0.93723589 12.727125
14.056414 -1.748386 0.87823403 14
14.085666 -1.0524557 0.89425272 12.873417
14.084707 7.1237702 1.0417075 11.573036
14.245638 7.3565965 1.0589353 12.012099
14.336955 -4.3429103 1.5660572 12.1
14.31075 -3.6973274 1.2639793 11.4003
14.038967 -2.1630304 1.3677624 12.777778
14.013546 -1.0161492 1.4204583 12.391666
14.100311 7.1196489 1.3715742 11.566613
14.2315 7.3609405 1.3492681 12.303658
14.312092 -4.3532939 1.8602905 13
14.082829 -2.4183328 1.6522305 14.1795
14.030521 -2.1713345 1.819719 14.5
14.012704 -1.0513922 1.7903028 13.666667
14.086429 7.1238551 1.832696 12.415937
14.231772 7.3501935 1.8335122 13
14.094263 17.864235 1.9933026 10.117
14.238924 -4.3371835 2.1543303 13.782111
14.312088 -3.8026083 2.2342257 15.00075
14.234652 -3.3304505 2.2332685 15
14.171727 -1.0204313 2.3287592 13.6073
14.083026 7.1245399 2.1918952 13.494288
14.218163 7.3619342 2.2061629 14.5
14.084502 17.836353 2.0305574 10.11625
14.337369 18.016182 2.1208286 11.08325
14.03733 -1.3821344 2.6365333 13.08675
14.071238 -0.98291904 2.5492997 13
14.048894 -0.76102102 2.6482973 14.018499
14.010046 -0.19822261 2.6255465 13
14.012718 0.18270437 2.6242497 13
14.099918 4.1702285 2.6428788 13.3665
14.075245 4.5513515 2.6287591 13
14.103548 5.326242 2.698364 14
14.139838 5.9917073 2.649473 13
14.103228 6.0934744 2.6524963 13
14.139571 6.6112461 2.688256 15.078751
14.070656 7.1113319 2.541899 14.088411
14.255002 7.3534932 2.574281 15
14.356797 18.110222 2.5213969 12.083
14.241501 17.729824 2.8248875 11.116
14.676254 -4.3271494 -0.49563599 4.8571429
14.525233 -3.7585957 -0.43233058 5
14.639253 -2.8656833 -0.51490563 4
14.591664 -2.27177 -0.51276982 3
14.634339 -1.8769323 -0.5027197 1.3333334
14.711 -1.3735335 -0.5060271 2.5999999
14.5485 -0.95255423 -0.50045341 3.0476191
14.583752 -0.59609163 -0.5057472 2.8888888
14.555962 -0.18390344 -0.50792909 2.5
14.574975 0.15711705 -0.50310034 2.25
14.552982 0.60178375 -0.49426106 1.9166666
14.555875 1.0681773 -0.48762369 1.1666666
14.567471 1.3520056 -0.47329345 1.5
14.629098 1.7281629 -0.47649017 1.5714285
14.507472 2.2275755 -0.46230969 0.5
14.624112 2.5962067 -0.45444047 1.1666666
14.617023 2.9848506 -0.44547594 0.5
14.630244 3.4439602 -0.44418049 1.3333334
14.610438 3.7583261 -0.42655173 2
14.658894 4.0893497 -0.43279314 2
14.564926 4.9813361 -0.41925746 3
14.490355 6.374639 -0.4070771 4
14.643599 -4.3388567 -0.17218664 6
14.493742 -3.7678919 -0.18401286 5.7777777
14.750328 1.9907336 -0.067990243 1.5
14.798432 2.0129187 -0.10139751 1
14.614883 6.2133861 -0.39114076 2.4000001
14.610962 6.5962667 -0.36738014 0.80000001
14.705993 6.9873066 -0.35628092 1
14.674553 7.3722425 -0.16017745 3.787698
14.615601 -4.3066449 0.25337809 7.5001001
14.501489 -3.7814813 0.24941571 7.4615383
14.722473 -1.076871 0.23712826 8.0865002
14.727439 1.9607735 0.25481543 6.5
14.761951 2.0029426 0.029929936 3
14.661982 7.3899961 0.19575433 6.3928566
14.744695 -4.1060019 0.61433983 8.7515001
14.716614 -3.7563286 0.71411741 9.2020006
14.43603 -3.3533025 0.63649905 9.0009499
