# .PCD v0.7 - Point Cloud Data file format
VERSION 0.7
FIELDS x y z intensity
SIZE 4 4 4 4
TYPE F F F F
COUNT 1 1 1 1
WIDTH 1212
HEIGHT 1
VIEWPOINT 0 0 0 1 0 0 0
POINTS 1212
DATA ascii
1.8480616 2.2132013 -0.85854 1.014881
1.8070962 2.5862544 -0.88716233 0.42857143
1.8234448 3.0024064 -0.87966156 0.33333334
1.8154418 3.4395595 -0.87549365 0.5714286
1.8308618 3.7750027 -0.88496125 1.1428572
1.822189 4.1793542 -0.88657933 1
1.7978902 4.5942068 -0.88167989 0.875
1.8691981 5.0452204 -0.88457012 0.40000001
1.8018323 5.4021082 -0.87983924 0.35714287
1.8493196 5.8400712 -0.90604526 1
1.8120878 6.1882968 -0.89346737 1.1428572
1.813189 6.5733776 -0.8863821 0.77777779
1.7654208 6.9727588 -0.89533496 1.5
1.847041 7.4109931 -0.89292455 1.5
1.8208491 7.8047757 -0.88939619 2.1458333
1.7891357 -7.9159532 -0.65038818 5.3482141
1.6283717 1.5351253 -0.54727781 1.8253969
1.7388328 1.822889 -0.57723355 2.9653335
1.8965143 2.1337574 -0.59082407 2.9186749
1.8019617 7.8553147 -0.59820914 3.0769446
1.8048002 -7.9273696 -0.22216493 7.9610066
1.6232495 1.498942 -0.16926388 5.7762346
1.7554955 1.8311709 -0.18187721 5.956109
1.8993093 2.1190569 -0.17840964 6.2336369
1.7803129 7.871428 -0.19410697 6.0093727
1.7858148 -8.0054321 0.19677156 8.0758333
1.8332833 -7.9484148 0.16723484 10.254676
1.6011368 -4.7944317 0.32902673 14
1.6289712 1.5364836 0.21636517 10.367487
1.773132 1.8292996 0.20590609 9.6843061
1.9222394 2.1228323 0.18101172 9.8418646
1.7987231 7.8731804 0.19978818 8.5610933
1.8008837 -8.0157804 0.57294273 9.0193005
1.8076369 -7.9862204 0.53238118 10.388889
1.602043 -1.6807857 0.79451311 12
1.6026597 -1.4564878 0.68367285 14
1.6329254 1.5327291 0.55611783 10.541667
1.7461109 1.8053085 0.57753164 11.317977
1.9269727 2.1223376 0.58211541 11.585713
1.8040131 7.88099 0.54923195 11.244444
1.8329448 -8.02209 0.97077686 10.605958
1.7838941 -7.9918308 0.93959856 10.333333
1.6012471 -5.689404 0.89035201 10
1.6000021 -5.061542 0.84042603 10
1.602928 -4.7408419 0.95160145 12
1.6017566 -2.6072135 0.87835729 14
1.6020997 -2.1337819 1.006212 14
1.6070862 -1.9040885 0.98770297 13.5
1.6032176 -1.5010161 0.83078396 12
1.6193717 1.4642677 1.0587099 11.625
1.7614936 1.7816409 0.97566605 11.974805
1.9449517 2.1170244 0.9919619 12.833333
1.7978535 7.8961964 0.99130648 11.913277
1.7619125 -8.0281782 1.2628684 13
1.6155225 1.4596676 1.3755225 12.277779
1.8021889 1.7956084 1.3741664 12.548612
1.9941455 2.1429188 1.4428861 12.5
1.785477 7.9206104 1.3477453 11.598416
1.7608888 7.895895 1.8596611 10
2.3640213 -7.5376463 -1.202512 1
2.2007601 -7.898613 -0.98622888 3.5454545
2.088182 -7.5427303 -1.1959836 1
2.1245158 -6.9001627 -1.1476789 0
2.3014653 -6.6898665 -1.1685885 3
2.2171431 -6.2408218 -1.19017 4
2.2261469 -5.2619076 -1.0897067 2
2.3536015 -4.411098 -0.99797797 1
2.1479945 -4.3623972 -1.0235429 1
2.2471132 -3.6674449 -1.0611062 2.3333333
2.1507866 -3.4083996 -1.0109309 2
2.1736784 -2.9148023 -0.96682501 1
2.2031801 -2.7086425 -0.95473945 0.5
2.2451336 -2.1643164 -0.93049812 0.66666669
2.2322664 -1.7570565 -0.94529569 0.5
2.304925 -1.4036808 -1.0081199 2
2.2189643 -1.0362372 -0.93863225 1.4166666
2.3379321 -0.55305231 -0.919285 1
2.2584207 -0.16830331 -0.95163703 1
2.2017043 0.169964 -0.93432456 2.2
2.1652706 0.59697121 -0.92442381 1
2.2093134 0.97145861 -0.93080556 1.375
2.2220449 1.3911136 -0.92007995 2
2.2661269 1.7533177 -0.89976901 0.5
2.1111543 2.2140224 -0.86284035 2
2.2393093 2.6232839 -0.87003809 1.25
2.2644029 3.0018919 -0.84037203 1.1923077
2.2193501 3.4284134 -0.86907035 1.3
2.2368293 3.7147784 -0.88022906 1.0400001
2.2332652 4.2358861 -0.88961118 0.33333334
2.2045195 4.6029582 -0.89238244 0.36363637
2.2404299 5.010932 -0.88736397 0.75
2.2258618 5.3709936 -0.89867866 1.0769231
2.1844141 5.7845588 -0.90460533 1.3636364
2.2545712 6.1704078 -0.86146605 1.9
2.2754793 6.6196098 -0.8633098 1.625
2.2413108 7.0092907 -0.8819195 1.8181819
2.2998564 7.3408999 -0.89005166 1.8
2.1935925 7.7772951 -0.88675022 1.8571428
2.2265477 -7.9055915 -0.6293332 4.7786531
2.075001 2.2285981 -0.57660109 2.7184381
2.2453651 2.5971615 -0.58812958 2.8287544
2.3055222 3.012037 -0.5786767 2.6082954
2.3172975 3.4522803 -0.57823259 2.5512881
2.2977347 3.6222951 -0.59126955 2.2587719
2.313309 5.9877777 -0.57711363 1.6184211
2.3222382 6.1144085 -0.58529955 2.8714285
2.3133934 6.5292587 -0.58278769 2.6893833
2.307514 7.0013762 -0.51440662 3.5
2.3233368 7.4101257 -0.60934043 2.7676535
2.2299957 7.8093109 -0.57729489 3.0080347
2.376862 -8.0166225 -0.31661117 7
2.2155595 -7.920588 -0.20520802 8.3174648
2.0760989 2.2545359 -0.2026771 5.3962989
2.2645438 2.5937686 -0.19041593 5.8451781
2.3139832 3.0103323 -0.18904421 5.9768701
2.3226395 3.4815216 -0.17588624 5.8842249
2.2979274 3.616297 -0.20771857 5.4632354
2.3277571 5.9886661 -0.2257234 4.75
2.3118496 6.0935922 -0.18507008 5.5328341
2.3049188 6.5196047 -0.21111365 5.2358713
2.3497064 7.01052 -0.36167929 2.3571429
2.3325117 7.4122238 -0.21015891 5.7677999
2.2368491 7.8139887 -0.18436749 6.0487151
2.2878551 -8.0150127 0.17252611 8.0553751
2.2310634 -7.9441524 0.15456046 11.20368
2.0935888 2.2587512 0.20827121 9.768198
2.26876 2.5855467 0.18723181 9.7591257
2.3174429 2.9878018 0.17030516 9.529952
2.3193059 3.4881165 0.17839187 9.9118137
2.3118138 3.625726 0.16538499 8.4666662
2.3420897 5.9911518 0.20571586 10.65
2.31937 6.112186 0.18953219 9.4051027
2.3037314 6.5279059 0.20122109 9.8614559
2.2395477 6.9675035 0.38006526 9
2.3381925 7.4158916 0.19794635 9.2837763
2.2458465 7.8250713 0.18283559 8.8991575
2.2504787 -8.0244856 0.5011338 9.0198002
2.2230666 -7.9847736 0.58973593 10.5
2.0953016 2.2468021 0.6034773 11.194873
2.2734308 2.5890369 0.59237242 11.481533
2.3253531 2.9909856 0.54903531 11.425
2.3230436 3.4831982 0.58846754 12.113158
2.3248899 3.6155608 0.50211757 11.055555
2.3123775 5.9984293 0.51393121 13.5
2.3275502 6.1021357 0.58109534 11.615477
2.3235972 6.5592637 0.55391222 12.126316
2.3160064 6.9940858 0.59302175 11.542279
2.3276427 7.3838634 0.56135458 12.06414
2.2439144 7.8204026 0.56883544 11.563113
2.2063756 -8.0317364 0.94347334 10.4775
2.3160517 -7.9949193 1.1691716 11
2.1145945 2.2451334 1.0308603 11.73913
2.2788496 2.5595484 0.96065491 11.969697
2.329011 2.9797556 0.91566372 13.8125
2.3122766 3.5283394 0.98723501 13.659091
2.2532167 3.6678274 1.0229357 13.5
2.3197691 6.1171217 0.97081339 12.514706
2.3195584 6.586122 0.95375967 13.095512
2.3070371 6.981431 0.99998611 13.122809
2.321523 7.4021258 1.0037433 13.300488
2.2622559 7.8285241 0.98996723 12.782143
2.1902714 -8.036438 1.2657264 13
2.1465132 2.2285023 1.4026301 12.578947
2.2869139 2.4690239 1.3890911 11.866667
2.3159797 6.0958376 1.3893299 12.125
2.2530727 6.595829 1.3541802 13
2.2471452 7.0082178 1.4260721 13
2.3040626 7.469327 1.2720428 13.5
2.2353549 7.8493118 1.3235626 13.333333
2.6747415 -6.3150158 -1.2044839 4
2.5295823 -7.9139438 -0.94875365 4.4166665
2.5526907 -7.2433791 -1.1022393 2.3333333
2.6213937 -7.0159583 -1.0916384 2.2083333
2.5148151 -6.6374435 -1.1649587 3
2.7277164 -5.1845737 -1.0934707 2
2.6134222 -4.6165504 -1.1152232 3.5
2.5510979 -4.2984042 -1.0442404 1
2.5354359 -3.6741078 -1.0570821 2
2.5487607 -3.4178472 -0.98670352 1.25
2.4848666 -2.9811256 -0.95545167 1
2.466553 -2.5994785 -0.94480175 0.85714287
2.6006212 -2.1877499 -1.0361704 2.3333333
2.5070431 -1.982614 -1.0529487 3
2.6378286 -1.3815842 -0.97344375 1.3333334
2.6622174 -1.099268 -1.0151894 3
2.6256812 -0.6591875 -0.98925036 1
2.4960465 -0.26200417 -0.9396286 0.8888889
2.580133 0.27244323 -0.93381882 0.80000001
2.5567892 0.66483587 -0.91545516 0.66666669
2.5609858 0.99594867 -0.92348504 1.2
2.5431931 1.3772644 -0.91838598 1.3333334
2.6781442 1.8632638 -0.90165365 0.14285715
2.6649072 2.2308621 -0.90291727 0
2.627701 2.5931835 -0.90685773 1.7272727
2.5833313 2.9608176 -0.88682878 2.3333333
2.5248234 3.3963082 -0.89757282 0.80000001
2.5993421 3.8086779 -0.89276934 0.5
2.6001914 4.2167873 -0.89484954 0.5
2.6021621 4.5851331 -0.89775711 0.72727275
2.5750947 4.9966593 -0.90417808 0.42857143
2.5825586 5.4236665 -0.90185547 0.80952382
2.6150336 5.7924805 -0.90541017 0.80000001
2.6344557 6.2590261 -0.89264351 1.2222222
2.5424113 6.6061058 -0.89271116 0.83333331
2.4116385 7.0181122 -0.8786056 2
2.5417135 7.3998795 -0.92034411 1.1818181
2.5853465 7.8059087 -0.86776632 1.5166667
2.5279408 -7.9218597 -0.62443149 6.2631001
2.565093 -7.2523193 -0.54116523 5.5
2.6477125 -7.0579338 -0.5410378 2.1111109
2.4199576 2.7038429 -0.54763365 2.4645061
2.413295 3.0013216 -0.49086455 1.7597882
2.4080203 3.4177146 -0.49729118 1.8324878
2.4048889 3.6052992 -0.59178907 1.8333334
2.4111707 6.1524396 -0.56894141 2.6933334
2.4107656 6.5258937 -0.59995604 2.5555556
2.4053607 7.0504365 -0.50934684 3.375
2.4111357 7.3944225 -0.60848194 2.3978262
2.5422442 7.8306389 -0.57946241 3.4748979
2.5629976 -7.9485669 -0.23414885 8.0270605
2.5734947 -7.2734842 -0.2216222 8
2.6537864 -7.0822663 -0.21099603 7.9478893
2.4304159 2.6944988 -0.18378599 5.4001169
2.4098749 2.9770317 -0.18900834 4.7350087
2.413986 3.4364259 -0.17075391 5.4651384
2.4170182 3.6180968 -0.21162711 4.4404764
2.4131296 6.14358 -0.1917613 5.328166
2.4129369 6.5342035 -0.18676592 5.231884
2.4079888 7.0439262 -0.37991413 2
2.4190989 7.3966637 -0.18922046 5.8373985
2.5417619 7.8458838 -0.19224164 6.1275129
2.5548763 -8.0188589 0.22508353 8.3063755
2.5677593 -7.9511576 0.14807911 11.052204
2.4281542 2.6801374 0.21056335 9.7746572
2.4155111 2.9848096 0.1830962 10.25087
2.4183676 3.4431002 0.19116864 10.172168
2.4180508 3.616751 0.20986302 11.642857
2.4256401 5.992887 0.39575133 14.139
2.4164405 6.1239877 0.21481076 9.8355169
2.4137826 6.5310636 0.19584303 9.7121363
2.4274325 7.3938065 0.21035878 9.3187523
2.5504673 7.8343301 0.20539863 9.1218328
2.6004102 -8.0256557 0.62637764 9.3244295
2.5615981 -7.9797463 0.54471594 10.792916
2.430491 2.6832311 0.54876256 11.035295
2.4191265 3.0093284 0.63042217 11.26
2.4261324 3.464402 0.55573213 11.945795
2.4115047 3.6358335 0.54111362 9.666667
2.4221041 6.1494665 0.6040796 11.901682
2.4188578 6.573967 0.58626521 11.885893
2.4203997 6.9890676 0.59393513 11.710514
2.4190288 7.4106092 0.57790989 11.872515
2.5181863 7.8452129 0.58838552 11.693162
2.6024666 -8.0300894 0.99983734 10.69475
2.4363778 2.6989605 0.98864305 11.815789
2.42415 3.0168684 1.0580481 11.8
2.4243534 3.399168 0.96194333 11.645833
2.4213929 3.6232605 1.0728898 9.5
2.447736 5.9999695 0.80699885 14
2.4282002 6.1306257 0.9844349 12.978444
2.427038 6.5807037 0.95950955 12.973499
2.4321437 6.9673648 0.97826421 13.090565
2.4268894 7.4078741 0.94675165 12.657138
2.5431182 7.8645735 0.97676152 12.263889
2.434535 2.6826706 1.3067268 12.9
2.4276533 2.9845977 1.3101898 11.222222
2.4383488 3.4273217 1.4523703 10.75
2.4340553 3.6133866 1.3567888 10
2.4404712 6.2029166 1.383514 12.43
2.4383645 6.6139007 1.354359 12.8026
2.4459088 6.9675179 1.399608 13.833333
2.4410491 7.4305182 1.3610116 12.25
2.5359139 7.8672843 1.3211157 13.321428
2.4126456 2.642746 1.6516843 12
2.9860487 -6.2581711 -1.2019262 4
3.0832627 -5.7828646 -1.2098563 3
3.1477973 -7.8494592 -0.8992064 3.8333333
3.0308292 -6.8771334 -0.99306303 3.4461539
2.9828713 -6.6654859 -1.0107263 2.25
3.0808406 -6.1798668 -1.1145766 0
2.963799 -5.1412277 -1.1056135 2.5
2.9896617 -4.6299195 -1.1104498 3.25
3.0773613 -4.1976972 -1.0697607 1.3333334
2.9914238 -3.7316787 -1.0781726 2.6666667
3.0257044 -3.4284828 -1.0325483 1.8333334
3.0818825 -2.9392989 -0.98316342 1.1666666
2.9790111 -2.5062788 -0.96116281 1.5
2.9742968 -2.2611525 -0.96379447 0.5
3.031441 -1.8818177 -0.99494809 1
3.0165343 -1.4289362 -0.94674206 0.80000001
3.0315022 -1.020556 -0.93105483 0.77777779
3.0088096 -0.60567147 -0.94962591 0.5714286
3.0383174 -0.22903642 -0.91362584 0.5
3.0467181 0.23735027 -0.93919784 0.69999999
3.0620236 0.65259427 -0.91201341 0.2
3.0106382 1.0284767 -0.91790688 0.55555558
2.9327018 1.3631524 -0.91606778 0.69999999
2.9734356 1.8300872 -0.91447401 0.33333334
3.02281 2.2419698 -0.91164643 0.71428573
3.0117817 2.5595305 -0.93158752 1.6666666
2.9993603 3.0280867 -0.89063483 1.2222222
2.9832234 3.4191666 -0.91233265 0.89999998
3.0200598 3.7923782 -0.90937144 0.58333331
3.0206692 4.2091861 -0.92249936 0.75
2.9384172 4.5721045 -0.90681607 0.2
3.0163281 5.0324593 -0.91850412 1
2.9975595 5.4259229 -0.9146421 0.46153846
3.0786979 5.8414636 -0.90557534 0.58333331
3.0226307 6.172945 -0.90868407 1.1666666
3.0787725 6.550211 -0.91284996 1.6666666
3.050648 6.9828124 -0.89596844 1
2.9895406 7.4587131 -0.93085063 1.2857143
2.9822795 7.8127503 -0.87987918 1.8166666
3.1619487 -7.8682241 -0.60606718 7
3.0161521 -6.8636541 -0.63039583 4.376111
3.0924182 -6.7714505 -0.7834605 4
2.9904029 7.8529129 -0.56934726 3.5298297
3.0104501 -7.9371934 -0.1562773 8.9584999
3.0400586 -6.8813558 -0.31182337 8.2287064
3.0117524 7.8767753 -0.19991241 6.2096772
3.013202 -8.0250292 0.19671468 8.1166658
3.0068445 -7.9590535 0.14599386 11.451566
3.0265186 7.8804274 0.20456646 9.0377436
3.0285327 -8.0240526 0.71564943 10.176642
3.0151608 -7.9822621 0.48959094 10.62625
2.9913495 7.8894072 0.57722467 11.028572
3.0188396 -8.0243835 1.0009918 10.873667
2.9958234 7.9017739 0.97060996 11.375
3.0145516 7.9117031 1.3250383 11.783334
3.0888216 7.9081831 1.6759015 10.5
3.5609822 -7.7895041 -1.2926848 0.75
3.5396013 -7.2696471 -1.20008 4
3.4448495 -6.2178535 -1.2064829 4
3.4106832 -5.7591925 -1.2198558 3
3.5686398 -7.8331485 -1.011564 2.2826087
3.351059 -7.0399508 -0.94187111 3.1015153
3.4763236 -6.5661783 -1.1631186 1.6
3.2691655 -6.0439329 -1.1121624 0
3.4506547 -5.8216033 -1.1162957 0
3.4169121 -5.408865 -1.0943859 0
3.306304 -5.0689006 -1.1089736 2.5
3.3241076 -4.6878057 -1.033404 2.4000001
3.4557204 -4.3676176 -1.1574261 3
3.3771975 -3.7383366 -1.0803068 2.5
3.3898778 -3.392432 -1.0092266 1.4285715
3.3747928 -3.021841 -0.97004944 1.1666666
3.3899269 -2.7027564 -0.95734805 0.81818181
3.3693132 -2.2651021 -0.95714408 0.92307693
3.3677185 -1.7744831 -0.94805199 0.66666669
3.4604199 -1.3931185 -0.95834166 0.16666667
3.4273419 -1.0191399 -0.96323842 1.3333334
3.3904438 -0.52786303 -0.96048838 1.2857143
3.2788651 -0.19878262 -0.92917895 1.25
3.4119771 0.19995598 -0.94425827 1.6666666
3.4648809 0.57159531 -0.92974281 1.75
3.5102863 1.0194554 -0.93947732 1.2
3.4202156 1.397355 -0.92050481 1
3.3093936 1.8357358 -0.92116874 0.83333331
3.361644 2.2289517 -0.93501711 1.3333334
3.3508554 2.5280757 -0.93004078 1.1111112
3.4247429 3.0797813 -0.92279834 1
3.428575 3.4022062 -0.93533283 0.90909094
3.3937535 3.8164475 -0.92493045 1
3.3882253 4.2242198 -0.91230333 1.1578947
3.4418094 4.6277633 -0.93037766 0.83333331
3.4054203 5.019577 -0.93830419 1.9166666
3.3456047 5.3706541 -0.92600548 1.9
3.4247661 5.8238211 -0.91778618 1.0666667
3.4234228 6.3194013 -0.92352247 1.3333334
3.4263859 6.6104507 -0.92281193 1.3333334
3.3646631 6.9913936 -0.90512002 1.25
3.3959327 7.4318523 -0.93207943 1.5
3.3856459 7.8235216 -0.87116021 2.4615386
3.5743458 -7.8696885 -0.61642569 6.6999998
3.3933578 -7.3220649 -0.61918479 5.4252601
3.362061 -7.0479293 -0.5573622 4.684617
3.5544307 0.59447879 -0.53339285 2.1666667
3.5466022 0.86682463 -0.53908378 1.38
3.4076173 7.8527331 -0.58111691 3.4522893
3.5360053 -7.9061031 -0.18547915 10.085317
3.4722996 -7.3343654 -0.33003148 9.4761906
3.3705854 -6.9936647 -0.24984773 7.9599633
3.5514755 0.66149914 -0.24269861 5.6282053
3.5396199 0.87731874 -0.3099314 4.25
3.412991 7.8665581 -0.22638835 6.0934782
3.3976197 -8.0457897 0.19155243 8.1142502
3.4955337 -7.9450669 0.16477673 11.038417
3.4284382 7.8721642 0.19401824 9.402544
3.3897691 -8.0247755 0.69408405 10.469429
3.4191344 -7.9892802 0.54960448 11.043416
3.4007761 7.8842554 0.57284778 11.310884
3.3903673 -8.0234528 0.99723083 10.938356
3.2605441 -7.9998279 0.86696309 10.504
3.4360535 7.9082494 0.99436265 11.142858
3.4074528 7.9264712 1.3358094 11.541667
3.4224854 7.9101071 1.6652795 10.333333
3.6389608 -7.7326889 -1.6478119 0
3.7604892 -7.7805829 -1.344047 1.7387096
3.6848247 -7.4139972 -1.3135448 1.3101852
3.7975693 -7.0999756 -1.2971817 1.7142857
3.9533563 -6.4560838 -1.2298247 2
3.9767745 -6.3442812 -1.2298048 0
3.842422 -5.6907692 -1.2303771 3
3.7538319 -7.8051915 -0.99053782 3.2842135
3.7011459 -7.3645334 -0.94607401 2.8016906
3.7913368 -7.0510683 -0.97177923 2.4000001
3.9256618 -6.5163107 -0.9670254 2.6428571
3.9461172 -6.3056726 -1.0596145 2.3410258
3.6649985 -5.6212263 -1.0927211 0
3.8319926 -5.4283509 -1.0865591 0.60000002
3.9215374 -4.945498 -0.96987897 1.5714285
3.8533952 -4.5371442 -0.9288168 1.6296295
3.8912163 -4.1820302 -0.92498428 1.8908228
3.9187214 -3.8174429 -0.95819509 2.0045269
3.8016188 -3.4108922 -1.1024566 2.75
3.8363056 -2.9610791 -0.98023337 0
3.7399061 -2.6275692 -0.97698134 0.27272728
3.7960413 -2.2351308 -0.97920763 0.85714287
3.8025637 -1.79539 -0.96950245 0.72727275
3.765645 -1.354053 -0.93894666 1.4545455
3.8257794 -0.9685356 -0.95123911 1.3
3.7736647 -0.63289297 -0.9285028 0.8888889
3.850395 -0.23620217 -0.94291502 1
3.7850027 0.18280108 -0.92072165 2.125
3.7872744 0.55198979 -0.94115043 1.8181819
3.835573 1.0297303 -0.93023354 1.3636364
3.9149792 1.4440173 -0.95050263 1.3333334
3.8102601 1.8381945 -0.93087214 1.4
3.719409 2.1526999 -0.94164276 1
3.7662287 2.6628354 -0.94668996 1.875
3.7587726 2.9575381 -0.939951 1.25
3.889148 3.4249489 -0.94578046 1.7142857
3.7622449 3.7951484 -0.9286595 1.7333333
3.7568092 4.1878366 -0.94727331 0.53846157
3.7696683 4.6301789 -0.93859452 1.5
3.7730002 4.9954653 -0.93623465 1.7
3.8012626 5.3261671 -0.94871676 1.5
3.7881083 5.8051167 -0.93761075 1
3.8016543 6.2024755 -0.93235523 1.3333334
3.7798426 6.5934854 -0.92368871 1
3.8828452 7.064095 -0.92003465 1.6666666
3.8512919 7.3590221 -0.94873333 2.125
3.7907605 7.8000259 -0.90029323 2.5185184
3.7469187 -7.8304172 -0.62718976 6.4839954
3.7257152 -7.3359852 -0.60970986 5.3274994
3.7946749 -6.9883533 -0.69258887 2.8277776
3.9605422 -6.5156913 -0.61173034 3.9261079
3.983439 -6.3509831 -0.62268966 3.257143
3.9677653 -4.9403152 -0.58979553 2.967706
3.8673306 -4.5550027 -0.59228641 3.6142716
3.9107606 -4.1903043 -0.58690399 3.6671159
3.9725573 -3.9185028 -0.6006279 3.8083332
3.9910908 -3.4792485 -0.47424668 4.5
3.7260373 0.34662536 -0.58929622 1.5
3.616992 0.48565257 -0.59383047 2.5
3.8056281 1.1600698 -0.56007749 1.7875
3.8910491 1.2201935 -0.48501182 3.6666667
3.8009212 7.853744 -0.6035741 3.3372476
3.7317464 -7.8269801 -0.20677601 10.41553
3.7327359 -7.3648777 -0.20463239 9.9730129
3.8149073 -7.0791712 -0.14203951 12.542063
3.9766426 -6.5063148 -0.22492996 10.450931
3.9519153 -6.219285 -0.27469295 9.4444447
3.9718485 -4.9514661 -0.18913378 9.0393534
3.86571 -4.5455232 -0.18771248 8.1334047
3.9220858 -4.2024107 -0.19045052 8.16325
3.9819286 -3.9393723 -0.22178043 7.4385414
3.8578811 0.33438832 -0.20543301 5.865943
3.6714282 0.59267354 -0.11111514 7.0841389
3.8237369 1.0803729 -0.1954294 6.1098657
3.9673405 1.2187212 -0.3208546 3.75
3.815207 7.8722596 -0.2155547 6.222425
3.7155528 -7.8492126 0.16735375 11.541448
3.7617104 -7.3818464 0.13295802 11.769358
3.8856812 -6.9693489 0.18359002 10.699966
3.968992 -6.5706511 0.099493206 11.58577
3.9977517 -6.3142262 0.057736013 8
3.9764199 -4.9263787 0.14890026 11.730967
3.8771203 -4.5444474 0.18657023 11.534247
3.9347358 -4.1880727 0.17934915 11.284179
3.9826505 -3.9355276 0.17247222 10.439393
3.8880157 0.67944509 0.053912405 8.0434999
3.8360798 0.86400986 0.032051921 9.0690002
3.8162901 7.8743038 0.18214333 9.1207199
3.8252783 -8.0224266 0.64663368 11.833333
3.6689184 -7.8153958 0.57592636 10.684526
3.7804437 -7.3956151 0.5918833 11.686023
3.8937087 -7.0127344 0.58825958 11.849257
3.9756951 -6.6596475 0.56003577 12.313616
3.9660792 -4.9131389 0.55788523 11.619048
3.8652899 -4.5428739 0.57876134 11.48404
3.9341326 -4.2278533 0.56142735 11.726952
3.9590979 -3.9461558 0.5705747 10.5
3.7863438 7.8816667 0.58583075 10.673476
3.6995947 -8.0336504 1.0006838 12.833333
3.6932645 -7.8072963 0.97692776 11.489288
3.7898898 -7.382689 0.95878524 11.533334
3.8964043 -7.0698161 0.94694483 12.006137
3.9763172 -6.6606083 0.93203902 11.666667
3.9515004 -4.9376884 0.98846567 12.7
3.8666055 -4.5800023 0.95299715 12.247159
3.9302733 -4.2621169 0.99458444 12.731096
3.9759083 -3.9616427 0.93045223 11.5
3.8451736 7.8974199 1.0286351 11.450574
3.7263241 -7.6723418 1.2478343 13
3.8131251 -7.3649559 1.2321596 12.503
3.9775443 -6.5298815 1.205447 11
3.9566021 -4.9723339 1.3323327 14
3.8598235 -4.5610719 1.2840701 13.431583
3.913419 -4.2787304 1.2615396 13.450832
3.9768255 -3.9809387 1.2072592 13
3.7991123 7.9095945 1.3799064 12.366667
3.7746887 7.9125514 1.6665829 10.333333
4.1833515 -7.8155923 -1.3434417 1.8396825
4.2133679 -7.0132947 -1.4194468 1.3333334
4.212225 -6.606288 -1.2830578 2.5
4.2117038 -6.2019019 -1.3447233 1.6666666
4.2078252 -5.7415791 -1.2476631 1.1111112
4.0805311 -5.3912754 -1.2586672 0.5
4.2134409 -7.8604293 -1.0009117 2.7946296
4.0111766 -6.4321504 -1.0000856 2.3571429
4.044713 -6.2118373 -0.97981715 2.0810845
4.1544571 -5.7948337 -0.95360816 2.1194217
4.0874557 -5.3864088 -0.95900953 1.4645604
4.063942 -5.022387 -0.93616772 1.7629629
4.0467649 -3.6771395 -0.9163627 1.3791666
4.1024323 -3.4597824 -0.93361014 1.3638716
4.2297926 -2.9944315 -0.96075672 1.7419355
4.3130178 -2.6216257 -0.90001607 1.6130736
4.2281108 -2.2195582 -0.94389319 1.1960783
4.2023783 -1.8508004 -0.9767251 1.5714285
4.2466102 -1.4124402 -0.96137345 1.1428572
4.2161074 -1.0366904 -0.95592505 1
4.3636327 -0.55116796 -0.86421514 2.1136363
4.283494 -0.15375291 -0.89559066 1.6256409
4.230402 0.13974571 -0.88504642 1.7973216
4.241776 0.60736233 -0.97295088 1.8333334
4.0954762 1.1728245 -0.95137763 1.5
4.2082276 1.4142683 -0.95660698 0.77777779
4.1621208 1.7758118 -0.93611825 1.4
4.1501913 2.2263458 -0.94952965 1.4
4.2325044 2.5572774 -0.9442718 1.5
4.2186255 2.9723804 -0.96438706 1.4444444
4.1655374 3.503792 -0.94250721 1.4444444
4.1325288 3.8169892 -0.96266305 1.2
4.2061825 4.1640825 -0.96572566 0.90909094
4.2511339 4.6073465 -0.97007674 0.69999999
4.1785951 4.9706445 -0.9609552 1.1111112
4.2014947 5.2734327 -0.96031094 2
4.2133069 5.7534595 -0.95622617 1
4.1517301 6.1980538 -0.93840903 1.5
4.237195 6.5807104 -0.94117117 2.4285715
4.1985955 7.0329223 -0.93555033 1.25
4.2105045 7.31148 -0.97221845 2.2857144
4.2239065 7.8168278 -0.90022248 2.7211537
4.2087641 -7.8981619 -0.63415056 6.5031142
4.0322566 -6.4843054 -0.58968455 4.2692308
4.0569301 -6.1929317 -0.61393774 4.4410291
4.1732659 -5.7604465 -0.59888208 4.4247561
4.0957766 -5.3879838 -0.61385018 3.5988977
4.0216932 -5.0987611 -0.58703786 3.851208
4.0475125 -3.7000096 -0.60254359 3.5338213
4.1177411 -3.4586592 -0.5867362 3.5920296
4.2315207 -2.9972491 -0.58830434 3.5872092
4.3258734 -2.6349201 -0.58958459 3.698621
4.3701515 -2.3361008 -0.59098256 3.46875
4.3638434 -0.51910186 -0.57134777 3.3747475
4.3246255 -0.22942269 -0.61512631 3.0916665
4.2871914 0.14270072 -0.59759325 3.4926901
4.2372923 1.095945 -0.51629043 1.3774555
4.1337342 1.2190458 -0.44462058 0.85000002
4.1976256 7.8543205 -0.58711416 4.0336366
4.1889529 -7.9329147 -0.20731723 11.130088
4.0177231 -6.4736872 -0.18536486 9.5472231
4.0675225 -6.2183428 -0.20519522 10.08954
4.1790462 -5.7822495 -0.19646326 10.044615
4.0920472 -5.403451 -0.19794816 10.235014
4.023118 -5.1148677 -0.20830555 9.3027372
4.0556164 -3.7227426 -0.19092874 7.9502158
4.1263781 -3.5161326 -0.19424947 7.6117811
4.3256903 -2.6378734 -0.2052792 7.1997986
4.3959599 -2.323796 -0.18678948 6.5
4.3600793 -0.47020164 -0.19784759 6.3246913
4.3319678 -0.21786404 -0.21527843 6.166532
4.3011155 0.1573064 -0.19026358 6.2903738
4.1808181 1.0493033 -0.19802611 5.905601
4.1751976 1.2249533 -0.38686112 2
4.1841459 7.8658428 -0.20798908 6.3752723
4.201273 -8.0079937 0.38265061 10
4.1746807 -7.9647403 0.16294883 12.046297
4.0323157 -6.5327373 0.13445413 11.535969
4.0912008 -6.2244749 0.15548499 11.324684
4.1957564 -5.7976236 0.18440129 11.647115
4.1094332 -5.4200387 0.15878585 12.292991
4.02389 -5.0967813 0.18471289 12.540303
4.0515308 -3.772707 0.20466855 10.823401
4.142674 -3.4861231 0.2115711 10.697757
4.2864194 -2.9741702 0.30390561 11.925432
4.3363228 -2.6673079 0.18882476 10.409305
4.3994274 -2.3991337 0.13972677 9
4.3689194 -0.4940587 0.19308984 9.8988247
4.3270688 -0.20835961 0.18907921 10.193507
4.2995167 0.13271575 0.19726461 9.7445831
4.1882463 7.875392 0.18532123 8.8818626
4.2723451 -8.0257368 0.620058 12.833333
4.0481358 -6.5201335 0.5827089 12.366667
4.109261 -6.228014 0.54571539 12.485965
4.2107787 -5.8279982 0.5716871 12.669171
4.110611 -5.4269795 0.57830983 12.833333
4.0358157 -5.1189308 0.5233714 12.561905
4.0119691 -4.0303488 0.76923144 11.833334
4.0611482 -3.7658141 0.54372108 12.038833
4.1565771 -3.414479 0.56755257 12.036482
4.279254 -2.9875729 0.6042828 12.12005
4.3591194 -2.6802099 0.61585212 12.382953
4.3977566 -0.86162806 0.40652302 9.333333
4.3789835 -0.4970592 0.53310353 11.348235
4.3363237 -0.20528217 0.59734762 11.324075
4.3053689 0.1153459 0.58838916 11.703334
4.1887341 7.8798504 0.58748454 10.421965
4.1771846 -8.047781 0.96355826 13
4.0567765 -6.5107737 0.97413397 11.857142
4.0953608 -6.2619991 0.94151783 12.166667
4.2231274 -5.8281293 0.97456771 13.625
4.1268067 -5.4297409 0.95784855 13.714286
4.0486197 -5.0905395 0.85917062 13.361111
4.0058889 -4.0924368 1.1279492 14
4.0557098 -3.7994859 0.99647433 12.663175
4.1504726 -3.4051862 1.009104 12.278269
4.2576547 -3.0316925 1.0206981 12.674049
4.3585806 -2.6635661 0.98297089 12.973959
4.3865113 -0.5640018 0.9593538 13.25
4.3295135 -0.19802287 0.99467337 13.379763
4.312634 0.13536051 1.0066984 13.195402
4.2250214 7.8947334 1.0494902 11.529104
4.1204791 -6.237608 1.2644552 14
4.0467567 -3.8035777 1.3077462 13.143286
4.1561856 -3.4230247 1.3268141 13.586731
4.2509055 -3.0348594 1.3826848 13.791667
4.355794 -2.6625853 1.3492162 13.3125
4.3557806 -0.40083218 1.3292036 13.5
4.3526397 -0.2403553 1.3159724 14
4.3412991 0.20245606 1.3196095 14
4.2225122 7.8977203 1.3478441 12.184211
4.0812254 7.9196587 1.6619269 10.2
4.566565 -7.8231039 -1.3245674 1.8244047
4.7579279 -7.2096796 -1.5148526 1
4.476831 -7.1644096 -1.4958797 1
4.6754775 -6.5092168 -1.2908673 3
4.7274628 -6.1627846 -1.3557467 1
4.5970068 -5.997787 -1.2666018 1
4.5526228 -5.3741226 -1.2606777 0
4.694046 -5.0511522 -1.2123289 2
4.6218371 -7.8527131 -0.99497646 2.4428144
4.5843477 -4.0574937 -1.1552875 1
4.4046049 -3.9571986 -1.1385626 1
4.6595426 -3.4120765 -1.1376048 0
4.5062423 -3.0003579 -1.0517292 0
4.5186605 -2.5517983 -1.0395919 0.80000001
4.4668889 -2.2006292 -0.90632117 1.7098639
4.5791655 -1.8074244 -0.89908433 1.748
4.5085049 -1.4041946 -0.87202978 1.5067568
4.4928646 -1.0113163 -0.93049532 1.9090909
4.5112944 -0.52545816 -0.91068918 1
4.4556336 0.38094974 -0.85824811 1
4.5787907 0.69395119 -0.90627933 2.3555555
4.7073789 0.9892385 -0.88258153 2.220238
4.7078042 1.4229121 -0.90831405 2.0657144
4.7072563 1.7647996 -0.92581534 1.884375
4.5811415 2.2532027 -0.96319729 1.5
4.5986395 2.5574312 -0.98361605 1.1
4.6150322 3.0274796 -0.97205734 1
4.6275215 3.3575542 -0.98360455 1
4.7073922 3.7698441 -0.8963685 2.0555556
4.6913915 4.2078156 -0.9148078 1.96
4.7005949 4.5760283 -0.91154975 1.8094203
4.596909 5.0339136 -0.96888769 2
4.6066928 5.4024491 -0.96109819 1.2
4.566618 5.7448549 -0.95821166 1.6363636
4.6179943 6.1574678 -0.96177161 2.0666666
4.62503 6.5529618 -0.95301753 1
4.6001859 7.0203557 -0.96658862 1.8181819
4.6754494 7.4178782 -0.88840818 2.5157897
4.5087161 7.7701044 -0.87284321 2.9505496
4.5766702 -7.8977032 -0.61798054 6.609221
4.4169745 -2.5059576 -0.53907251 3.7475963
4.469317 -2.1837318 -0.6081118 3.658421
4.58219 -1.7919117 -0.60362107 3.6316099
4.5167112 -1.380867 -0.59371114 3.7144206
4.4578938 -0.9803372 -0.5334931 3.909091
4.4263835 -0.54444486 -0.52956587 3.2727273
4.4518781 0.33423376 -0.58279169 2.7782311
4.552381 0.64333987 -0.60272831 3.058284
4.7355747 0.9943614 -0.57212138 3.3070922
4.7796345 1.4130381 -0.57302099 3.3739927
4.7811809 1.6751083 -0.57554233 2.1071429
4.7491055 3.753665 -0.60729724 3.214397
4.7576609 4.1925659 -0.61155701 3.5967028
4.7574496 4.5865102 -0.60126227 3.0349123
4.7305222 7.4223657 -0.57415825 3.7564104
4.5227642 7.7767296 -0.59259099 4.1743975
4.5856919 -7.9375739 -0.22472376 11.209622
4.4194312 -2.5642569 -0.14019474 7.7493954
4.4785318 -2.2023494 -0.199343 7.055922
4.5998816 -1.8055582 -0.20006308 7.1887283
4.5355253 -1.3677438 -0.1986623 6.6463394
4.4398122 -0.47504494 -0.16976295 6.8575759
4.4410105 0.30554163 -0.17858812 6.6279764
4.5432577 0.5898121 -0.19696237 6.6015239
4.755476 0.97790188 -0.19732393 6.5015597
4.7894731 1.3817058 -0.23255068 6.0160489
4.7823048 1.6701013 -0.24632972 5.1203709
4.7630963 3.753762 -0.21535118 5.8509388
4.7710905 4.1803398 -0.21674518 5.9096122
4.7687488 4.5967522 -0.2144791 6.1942296
4.745141 7.4293985 -0.18450917 6.6033626
4.5273771 7.7942953 -0.20146355 6.4099703
4.6679997 -8.0063505 0.23992097 9.875
4.5890627 -7.9511757 0.17632172 12.95798
4.4234061 -2.5494163 0.20065202 10.191897
4.4865975 -2.2016044 0.19425121 9.9190216
4.604178 -1.8157572 0.20263588 9.9571218
4.547348 -1.3807557 0.18563703 9.6726065
4.4913692 -0.99331969 0.35994148 11.216451
4.4507728 -0.50516778 0.21382853 10.048306
4.4535437 0.32190588 0.19326986 10.385608
4.5739493 0.60597622 0.19538508 10.463191
4.7473321 0.94410098 0.17608944 10.102923
4.7877793 1.3407413 0.19508857 10.12963
4.7728705 1.6835418 0.12759143 10.944446
4.7794485 3.7501109 0.17551288 9.7146654
4.779654 4.1785131 0.16695312 9.8995838
4.7805614 4.5811362 0.17071608 9.8319864
4.7427015 7.4626431 0.18989648 9.0362234
4.5377936 7.7963414 0.1784963 8.853694
4.6750493 -8.0320463 0.61432552 12.5
4.4276562 -2.4794626 0.59576321 12.369697
4.4958477 -2.2216299 0.60769331 12.089445
4.6051302 -1.8105247 0.60317558 12.17885
4.5427508 -1.3903836 0.58978713 11.932858
4.4829583 -1.0000443 0.61085302 11.639246
4.4337687 -0.6491639 0.60039449 12.038624
4.411787 -0.30686295 0.57127464 13.8
4.4423685 0.3346135 0.62105 11.8
4.5863276 0.60541606 0.59759122 11.30351
4.7543845 0.92754197 0.56633651 11.079166
4.785944 3.71527 0.54865158 11.666666
4.7920632 4.1739597 0.55212921 10.896429
4.7924037 4.591116 0.54175603 11.280303
4.752934 7.4834065 0.58303094 10.426471
4.561523 7.7897301 0.55608439 10.733564
4.6664834 -8.0533381 1.0048337 11.5
4.4354696 -2.4737659 0.94324273 12.884615
4.4912539 -2.2111926 0.95463961 12.710001
4.6180329 -1.7990282 0.9498961 13.318238
4.5485005 -1.3771896 0.94737214 13.291256
4.4757085 -0.99020118 0.99281901 12.964553
4.4358454 -0.66167462 1.01838 13.094404
4.4497118 0.32089126 0.99240202 13.46875
4.5964117 0.61241174 0.98801923 13.030304
4.736958 0.88624787 1.0135437 12.765151
4.7918296 3.7524338 0.96077484 12.5
4.7803373 4.2281647 1.1494913 10
4.7927761 4.6357512 0.95848072 11
4.7429643 7.5196486 1.0201341 11.175379
4.5698686 7.7984643 0.97518712 11.764882
4.4497871 -2.4211092 1.3721241 13.5
4.4713154 -2.2151637 1.4029356 13.513888
4.5901213 -1.779569 1.3197697 13.5
4.5277543 -1.3455778 1.3125877 13.642858
4.4992971 -0.98973304 1.2790369 13.777778
4.4484515 -0.66020644 1.3096347 13.9
4.4383144 0.32804298 1.271086 14
4.60009 0.61501372 1.3005838 13.940475
4.6686282 0.81238234 1.4709598 14
4.7639341 4.2248564 1.5061926 11
4.7659588 4.6160221 1.5526111 11
4.7637143 7.5309701 1.3941746 12.310715
4.5884337 7.7909203 1.3392301 12.725491
4.976614 -7.8120813 -1.3876971 1.5503945
5.0144458 -7.2231293 -1.5288219 1
5.1802359 -7.1892452 -1.5169423 0
4.9948621 -6.5795212 -1.3124318 3
5.0610008 -6.3188696 -1.3612249 2.5
4.9496388 -5.6787949 -1.3965564 0
4.9593964 -5.4698973 -1.2499197 0
5.0104322 -5.1707587 -1.2404087 2
5.0071874 -7.8650622 -0.97332841 3.2980769
4.9375 -4.1908417 -1.1799766 1
5.0145822 -3.400975 -1.147903 0
4.8255224 -2.9090621 -1.0817602 0
5.0188417 -2.6798277 -1.1192675 0.75
5.029386 -2.0780721 -1.0544051 0.5
5.0205998 -1.7667943 -0.90023297 2.3269839
5.024147 -1.3776393 -1.0362877 1
5.0313511 -1.0895824 -1.0404868 1
5.0393791 -0.60642457 -1.0112374 0
5.1741838 -0.31914687 -1.0210649 0
5.0924854 0.72117352 -1.0148652 0
4.8696342 1.0074542 -0.9265483 1.4285715
4.9516482 1.4289237 -0.9392404 1.6666665
4.9007201 1.7315571 -0.89569271 2.1071429
5.0021014 2.210588 -0.99407309 2
5.0910473 2.5531738 -1.0164239 1.6
5.0133033 2.985023 -0.96742737 1.1111112
4.9727263 3.3801613 -0.97987366 1.8
4.9506507 3.7091985 -0.93245381 2.1500001
4.8388195 4.2460651 -0.89243972 3
4.9527802 4.6118016 -0.85472274 2.4814816
4.966249 4.9781475 -0.97129071 2
4.9658046 5.4210358 -0.97573912 1.5714285
4.9518576 5.8675699 -0.97610271 1.875
5.0193596 6.2232413 -0.97112054 0.80000001
4.9615712 6.5590892 -0.97961938 2.2857144
5.0011482 7.0071578 -0.98182935 2
4.9794321 7.3591809 -0.93230253 1.8571428
5.1442199 7.791358 -0.90068513 2.2166667
4.9565053 -7.8980913 -0.61097419 6.7929354
5.0039244 -1.7717326 -0.57062811 3.6691921
4.8750491 1.0442806 -0.5603165 2.2166667
4.8538494 1.4599994 -0.56855834 2.7386308
4.8540235 1.6728172 -0.58404994 3.4319446
4.8574109 3.7261195 -0.57468396 3.4807692
4.8410492 4.1918135 -0.57506841 3.730303
4.9520254 4.5776982 -0.5965091 3.1269033
4.8642774 7.3674955 -0.58036315 3.3355482
5.1001606 7.7690625 -0.59465259 3.191026
4.973371 -8.0121632 -0.012900159 8
4.9962993 -7.9372764 -0.20759952 11.182405
5.0066528 -1.778936 -0.21215461 7.6093302
4.8830957 1.0420022 -0.15710771 6.8915148
4.8456955 1.4348434 -0.18448062 6.203403
4.8619089 1.671398 -0.18911764 6.3043818
4.8620858 3.7362936 -0.20440376 5.6444445
4.8463287 4.2464366 -0.20263825 6.0330815
4.9434986 4.570847 -0.21621253 5.962934
4.8689361 7.3646908 -0.20433852 6.4482541
5.0963168 7.7592077 -0.20204008 6.7059016
5.0224943 -8.0215559 0.19364539 9.5227509
4.9828782 -7.9558702 0.17959155 12.47481
5.0289822 -1.7761874 0.18535756 10.335649
4.8520994 1.0614904 0.22979951 10.527477
4.8470392 1.4161352 0.1947654 10.51401
4.8591785 1.6678734 0.18126206 10.263968
4.8664641 3.7314758 0.21181297 9.8791294
4.8452582 4.1828289 0.21037838 9.8044758
4.916852 4.5795207 0.21244617 10.073319
4.8774614 7.371944 0.16205576 10.09836
5.0982904 7.7547507 0.15031712 10.346696
4.9911146 -8.0396614 0.62573767 11.6
5.0389218 -1.8080599 0.5597108 12.75
4.8030715 0.79707718 0.66534472 14
4.8416615 1.0537066 0.6214931 11.669697
4.8534441 1.4190361 0.6106258 11.566667
4.8784504 1.6630906 0.57004231 11.151163
4.8479586 3.748035 0.61521339 11.277381
4.8250008 4.2046738 0.57403004 11.018539
4.8708816 4.5733132 0.5964222 11.329451
4.8757753 7.3631263 0.59822249 10.950001
5.1081991 7.7514 0.57894617 11.202382
5.0092845 -8.0556841 1.0176443 11.333333
5.0485792 -1.810148 0.88616359 13.8125
4.832613 1.0620105 0.98901206 12.666667
4.8517599 1.4244444 0.97410583 12.783333
4.8885655 1.6629221 0.9636752 12.553922
4.858932 3.7704535 0.99244618 12.349008
4.8335924 4.203124 0.99525553 12.662162
4.8836908 4.5773392 1.0049341 12.563935
4.8862438 7.3721018 1.0003108 12.075001
5.1136441 7.7552066 1.0414894 11.928572
4.8300109 1.0664946 1.33227 13.66
4.8519459 1.4033676 1.3592806 13.713889
4.868464 1.6733479 1.3680905 13.541667
4.8685164 3.744663 1.3277987 13.363756
4.8436155 4.1871295 1.3535197 13.426666
4.8850226 4.5773439 1.3686924 13.535714
4.8938298 7.3823781 1.3411403 13.018182
5.1168065 7.7663393 1.2925676 13
4.8140345 7.5361514 1.6021501 10.175
5.3738532 -7.8168578 -1.3113739 1.15
5.3171835 -6.3323359 -1.3732617 2.5
5.2687173 -5.748313 -1.4283357 0
5.2676091 -5.1819196 -1.2481568 2
5.3839922 -4.3134141 -1.2120498 1
5.2054982 -8.0230122 -0.82746774 6
5.4093375 -7.8695207 -0.98644888 3.09747
5.5333676 -4.4978023 -0.87588978 1.2142857
5.5315151 -4.381495 -0.90100121 0.75
5.3318315 -3.7114816 -1.1618049 1.5
5.4321451 -3.3460026 -1.1687258 0
5.420835 -2.6664386 -1.1337785 1
5.3482375 -2.2106941 -1.0892231 0.42857143
5.3908429 -1.765678 -0.95158648 2.1642857
5.4467421 -1.3836424 -1.0840318 0.5
5.4190907 -0.93706793 -1.0416971 0.5
5.2621551 -0.49572849 -1.0198386 0
5.4533353 -0.34092385 -1.0392007 1.5
5.5224733 0.15499687 -1.0605901 3
5.4332943 0.85547322 -1.044067 0.25
5.4201136 1.4386561 -1.0330391 1.2857143
5.3951969 1.7499623 -1.0015815 1.75
5.4018731 2.2748749 -1.0258936 2.4285715
5.4010091 2.6232045 -0.99592096 0.89999998
5.4419951 3.0171409 -1.0127898 1.7777778
5.3701763 3.3979943 -1.0193429 1
5.3895755 3.7936883 -1.0061479 2.25
5.4212289 4.263958 -1.0397207 1.6666666
5.471262 4.5550346 -0.86369801 2.7
5.3568339 4.9874272 -0.99749935 2.1428571
5.4766769 5.4270349 -0.99331868 1.1428572
5.3562312 5.8359275 -0.99541938 1.7
5.3381519 6.196383 -0.99185491 2.375
5.4896498 6.6572828 -0.99952888 1.6
5.3696499 6.9217763 -0.98482615 1.4615384
5.3563833 7.3471947 -0.98728955 2
5.4335303 7.8555851 -0.88589352 3.1041667
5.5552216 -8.0273857 -0.43260175 7
5.3735995 -7.9010577 -0.59169525 7.7768383
5.5518045 -4.4894266 -0.59459591 3.6923077
5.396584 -1.7612143 -0.57462597 3.9953554
5.4055262 4.6083083 -0.59194595 3.1278901
5.4061427 7.8594508 -0.56746769 3.8546512
5.4446125 -8.0084209 -0.040759772 8
5.4011798 -7.9375219 -0.19742076 11.645155
5.5688605 -4.5004587 -0.18300498 10.683762
5.4062748 -1.7726853 -0.17985708 8.1256533
5.4073653 4.5991082 -0.20645936 6.3907866
5.4080405 7.86552 -0.18311241 6.9433937
5.4160767 -8.0404081 0.33406651 9
5.389307 -7.9569478 0.17466809 12.840279
5.5829091 -4.5502219 0.078280173 13.333333
5.4051204 -1.7905036 0.18476184 10.696524
5.4111242 4.5946655 0.19369467 10.13791
5.4156857 7.8777037 0.18577662 10.384782
5.3435798 -8.04111 0.6331107 11.4
5.3956127 -7.9745512 0.40940136 13.666667
5.4136629 -1.8059907 0.57818931 12.746033
5.4152784 4.6060653 0.61013472 11.086666
5.3748584 7.8898435 0.59786546 10.283495
5.3982458 -8.0571499 1.0751148 11
5.4413815 -1.8193861 0.8755213 13.738889
5.4164991 4.5949893 1.0179635 12.358334
5.3849788 7.9046483 0.96999937 11.284765
5.4065199 4.5963163 1.3514485 13.363636
5.4072084 7.9092865 1.3149548 12.010235
5.8103676 -7.8250098 -1.3486055 1.0780424
5.8426704 -4.3817658 -1.2420261 1
5.8410139 -3.7448912 -1.2049229 0
5.8189893 -7.8602619 -0.98579788 2.9195116
5.774179 -4.484828 -0.9273482 2.6515038
5.7081809 -4.3881369 -0.90480864 1.5
5.6795974 -3.7935734 -1.1784394 2
5.7282181 -3.3010838 -1.1732007 2
5.9574933 -2.8416796 -1.163944 0
5.7854857 -2.6054456 -1.1405863 0.8888889
5.7664223 -2.2067759 -1.1281172 0.83333331
5.7771764 -1.7833202 -1.1185815 1.7142857
5.7764587 -1.435925 -1.0918403 0.5
5.7183652 -0.95460421 -1.0729427 1.3333334
5.805934 -0.57486236 -1.0728366 1.5
5.8735189 -0.27921516 -1.0778885 1.6
5.809216 0.1895906 -1.0658159 2.125
5.8877182 0.56580639 -1.0555636 3
5.8105555 0.92208135 -1.0650096 1.125
5.7367592 1.4987648 -1.0673032 1.6
5.8342099 1.752977 -1.0177145 1
5.8021593 2.1848426 -1.0196528 2.8888888
5.7968283 2.509304 -1.0279349 1.5
5.8004589 2.9324794 -1.0175289 1.25
5.6818399 3.3733308 -1.0078143 1.1428572
5.7818184 3.807538 -1.0110972 1.5
5.8235826 4.2228727 -1.0096678 1.8571428
5.8219481 4.5907803 -0.88114369 2.625
5.7994871 4.9967775 -1.0150301 1.4
5.8013086 5.3597679 -1.0095173 1.2857143
5.8679419 5.8278098 -1.0089142 1.6
5.8734617 6.2022562 -1.0065054 1.5714285
5.7757425 6.607995 -1.0131378 2.375
5.8760462 7.0920897 -1.0282876 2.2
5.7968822 7.4011197 -1.0052876 1.8333334
5.8094687 7.8176026 -0.9330582 2.7210526
5.783288 -7.9067836 -0.57104826 7.9564452
5.7764802 -4.497498 -0.59586966 4.3010311
5.8893905 -4.3835649 -0.67673022 2.0555556
5.8113084 4.5971608 -0.59180814 3.460628
5.8170366 7.8633223 -0.60315001 4.2591662
5.8085132 -7.9445863 -0.20594026 12.217925
5.7719345 -4.5096931 -0.1795624 10.518812
5.7933254 4.6007886 -0.20808713 6.6964746
5.8270969 7.8631864 -0.17746238 7.0678549
5.7079802 -8.0043497 0.22856271 14
5.7807841 -7.9631267 0.22575469 11.504569
5.7749786 -4.5181971 0.13614723 11.288091
5.8212743 4.5786195 0.19382277 9.9572001
5.8317089 7.870101 0.19831473 9.321578
5.8442392 -7.9885278 0.42064661 10
5.7821712 -4.5198121 0.53551787 11.6125
5.8019824 4.5853639 0.60209668 10.865602
5.7991037 7.8650084 0.59188712 10.355715
5.6012206 -8.0614929 1.0864291 11
5.7932739 -4.5447993 1.0125015 12.380952
5.8090596 4.5784535 0.96555561 12.388345
5.8521242 7.8688016 0.99968773 11.47043
5.7832413 -4.5811591 1.2286453 13
5.8387446 4.5676107 1.3293073 12.527779
5.8097057 7.8752208 1.3443457 12.468421
5.9196029 7.9085517 1.6144937 10
6.1780844 -7.6594234 -1.6190267 1
6.3634596 -7.5639067 -1.6138589 1
6.2298455 -7.8406348 -1.3359942 1.2253969
6.3046021 -7.5177212 -1.4494076 0
6.2599773 -6.9499226 -1.4285686 1
6.0495944 -4.3719974 -1.2500031 1
6.2442393 -3.7698116 -1.2331583 0
6.2153287 -7.8649659 -1.007951 3.3856161
6.147737 -7.3863387 -0.88109589 2.9210527
6.2534461 -7.0054083 -0.93910503 2.0916414
6.2085342 -4.486073 -0.92723495 3.0643275
6.2452574 -4.2796197 -0.87092245 0.76666671
6.2271633 -3.8131552 -0.97841823 1.6481481
6.2600455 -3.4945114 -0.96931684 1.3666666
6.1246371 -3.1494963 -1.1938252 3
6.2980523 -2.5848289 -1.1614789 0.66666669
6.2578106 -2.2959747 -1.1641619 2.5
6.2353268 -1.8685676 -1.1459277 1.1111112
6.2072678 -1.3897299 -1.1188364 1.5
6.1892586 -0.94656575 -1.1065449 1.2
6.1446252 -0.63874906 -1.0787892 0.66666669
6.2368293 -0.2629768 -1.0832776 1
6.1826835 0.1269998 -1.0847644 2
6.2186661 0.55066562 -1.0773842 1.5
6.1674466 1.0252702 -1.0717187 1.25
6.202878 1.3870609 -1.0729045 1.875
6.1759658 1.9270263 -1.0551739 2
6.1704278 2.176667 -1.024708 2
6.1375556 2.5953276 -1.026045 1.8571428
6.2370315 3.0365098 -1.0372725 2
6.3117261 3.4989498 -0.94097835 2.1444442
6.260922 3.7833719 -0.9525668 2.3774509
6.2913766 4.1486449 -0.90528458 2.3763888
6.2476912 4.5456324 -0.87839842 2.8123188
6.1658926 5.0539007 -1.027882 2
6.1061277 5.3890982 -1.0292175 2.2
6.1098189 5.7546239 -1.0253112 2.4285715
6.2217412 6.1649423 -1.0371698 2.6666667
6.2775593 6.6460533 -1.0335929 1.6
6.1976905 7.0216804 -1.0254718 3
6.1302791 7.3201795 -1.0272323 2.25
6.1798177 7.8428683 -0.89167124 3.1985507
6.2127686 -7.8939672 -0.62797368 7.4519019
6.2313738 -7.373816 -0.67781436 6.1569538
6.2935266 -7.0329142 -0.71065611 5.1812959
6.1915355 -4.4979248 -0.61216289 4.2797585
6.2605081 -4.1892304 -0.59803057 4.2009892
6.2815609 -3.801285 -0.60143876 4.3830843
6.3619437 -3.5603735 -0.60888964 3.5714285
6.3423414 3.4701023 -0.54595208 3.3055556
6.3372993 3.7817149 -0.55574185 2.3803921
6.3426337 4.2047105 -0.56453544 2.8642113
6.2374601 4.5552325 -0.59714067 3.6766644
6.1993823 7.862412 -0.57961488 4.3025928
6.1953921 -7.9393258 -0.24137904 11.86878
6.2079186 -4.5073237 -0.18624891 10.283452
6.3405671 -4.1327715 -0.32389855 9.6000004
6.3145795 -3.7695251 -0.30007616 9.5401754
6.3760948 -3.5806916 -0.32198587 9.1818333
6.3581204 3.4692805 -0.19508298 6.4263892
6.3590565 3.7771275 -0.17231837 6.8486834
6.3606844 4.1924372 -0.17547497 6.9148555
6.2282457 4.5598588 -0.24100669 6.4068856
6.2209811 7.866188 -0.22408141 6.6411562
6.2347884 -8.0126047 0.23836839 14
6.2000604 -7.958776 0.13628149 12.046666
6.226212 -4.5020165 0.15473624 10.524999
6.1874037 -4.3904901 0.2555477 8.1780005
6.3792939 3.4262033 0.038835123 11.5
6.353807 3.833215 0.049658228 10.866666
6.3592257 4.0417995 0.052504197 10
6.2338166 4.5594692 0.19135369 9.920516
6.2042255 7.8746181 0.19321305 9.1579313
6.3225355 -7.9742413 0.47346917 12
6.1842093 -4.5204325 0.50634837 10.64725
6.2424493 4.575397 0.60429639 10.160583
6.2067161 7.8701625 0.62354398 9.9528561
6.1453719 -4.5412211 0.9375636 12.027779
6.2137599 4.5678926 1.0140953 11.755115
6.2323389 7.8792357 1.0278852 11.244762
6.0785298 -4.560513 1.2187955 13
6.2295713 4.5527458 1.3192853 11.852942
6.2296443 7.8697314 1.3609376 12.462963
6.2375073 7.909225 1.6488504 10
6.6887426 -6.69732 -1.5476143 0
6.6831455 -3.3149805 -1.2022395 3
6.7521772 -2.96474 -1.2073927 3
6.5144496 -7.881248 -1.0224015 2.4166667
6.5712371 -6.8372951 -0.92266297 2.9735506
6.6830091 -6.7752275 -0.96720868 1.5916667
6.5739346 -4.5471063 -0.9199729 1.1955181
6.5559883 -4.308259 -0.90092516 0.63333333
6.5705671 -3.439419 -0.99835765 1.6433333
6.4390726 -3.0573742 -1.1991844 3
6.6322508 -2.1741455 -1.1692905 2.4000001
6.5875382 -1.7989416 -1.1591823 0.5
6.5982556 -1.4980463 -1.1322609 1.3333334
6.5762329 -1.0358847 -1.1434711 1.2307693
6.6322684 -0.50851017 -1.112209 1
6.5569725 -0.33044612 -1.1000202 0.5
6.6116767 0.1575177 -1.0938772 2.0999999
6.6283774 0.59215522 -1.1194413 1.7
6.7174878 1.0213816 -1.0787665 1.3333334
6.5173311 1.4776986 -1.0612694 1.625
6.6369948 1.7886837 -1.0500023 2
6.5994725 2.1735911 -1.0775055 2.25
6.6174889 2.6691835 -1.031925 1.2
6.5829668 2.9570935 -1.0385252 1.4285715
6.5722222 3.47435 -0.93117398 2.6588235
6.4049563 3.8719144 -0.8979969 4
6.4067693 4.1908541 -0.91790026 4
6.5396214 4.6529951 -0.90476555 2.1352813
6.4757066 5.0392294 -1.0359091 1.6666666
6.5172577 5.4578729 -1.0503758 2.25
6.5270834 5.7829652 -1.0501876 2
6.6573739 6.2097006 -1.0422428 1.75
6.5661669 6.5927529 -1.0363744 2
6.5876465 7.0696936 -1.0347538 1.5
6.6524844 7.442811 -1.0159417 2.7142856
6.6018777 7.8242717 -0.93062329 3.1284723
6.5890584 -7.9133325 -0.58510691 8.2500324
6.4889059 -7.3068399 -0.51712149 8.7243567
6.5518379 -6.9882798 -0.64249057 6.9736691
6.7029805 -6.726553 -0.74116439 4.5208335
6.5830398 -4.5186095 -0.616799 3.9175901
6.5354109 -4.3229165 -0.60525459 5.2937498
6.5999913 -3.4499719 -0.5572055 5.4503951
6.5715909 3.4609342 -0.59920007 2.8103175
6.5497632 4.607832 -0.60615796 3.7015059
6.5967426 7.8566732 -0.58178401 4.3528819
6.6068463 -7.9364839 -0.26047337 12.441158
6.5927148 -4.5251217 -0.17136307 11.41928
6.501298 -4.3883004 -0.36739388 9.8888893
6.5409398 -3.4898891 -0.3042357 9.713357
6.576817 3.4623821 -0.16499591 7.1928444
6.543098 4.603725 -0.21542089 6.9836731
6.5791898 7.8656731 -0.20995891 7.2403445
6.6455674 -8.0110216 0.17695665 13.5
6.6069288 -7.9694295 0.1117444 12.714286
6.6486759 -4.5349641 0.15578853 11.074057
6.7795463 -4.3803282 0.27533761 8.1789999
6.513514 3.4333713 0.024417711 10.81234
6.595655 4.5770984 0.21473974 10.105556
6.5914116 7.8678017 0.18851845 9.7635927
6.6137009 -7.9763427 0.52066678 12.666667
6.5881605 -4.5222759 0.51839787 10.649518
6.6239223 4.5687747 0.62466198 10.879066
6.5846138 7.8675108 0.63755655 10.130392
6.5632081 -4.5480542 0.93472916 12
6.603734 4.5740356 1.0128888 12.025328
6.6111445 7.8689718 1.0164838 11.708975
6.5639086 -4.5657787 1.2150884 13
6.6091089 4.5486035 1.3306842 12.040947
6.6457825 7.8657298 1.3628483 12.0186
6.5177832 7.920639 1.6882257 10
6.9176331 -7.2901163 -1.616474 1
7.0957923 -7.1861038 -1.6181548 1
6.8200507 -7.8534641 -1.2814105 2
7.1867356 -7.2534986 -1.3428726 1.5
7.1642466 -6.9803023 -1.3342469 0.48888889
7.1327257 -6.6785464 -1.4089173 0.5
7.1971412 -6.3329215 -1.2498251 0
7.0049458 -3.2536228 -1.2128942 3
7.0610514 -2.857517 -1.2152798 3
7.1251874 -2.3245556 -1.2315514 3
7.0219064 -1.3657033 -1.2097656 0
6.8556237 0.64854956 -1.2008362 0
7.1403818 1.1922417 -1.2108279 1
6.8358483 -7.870564 -0.96431237 4
7.0740633 -6.8751836 -0.9901306 2.7272727
7.1120329 -6.6719251 -0.99713886 1.375
7.1928005 -5.4031687 -0.9817903 2
7.0183835 -4.5542431 -1.0019715 1.4150587
7.0646925 -4.3920445 -0.8044458 1
6.9832015 -3.4655573 -1.0062852 2.2954545
6.9953995 -2.2377961 -1.1568656 1.5
6.9336333 -1.8097028 -1.1570377 1.3333334
7.0401659 -1.3178771 -1.1625155 1.6
6.9237299 -0.95161533 -1.1330721 1.2
7.0168271 -0.64045227 -1.1364145 1.1428572
7.0304742 -0.16377236 -1.1219599 1.9166666
7.0427999 0.19005509 -1.1373167 3.2
7.0091867 0.58276623 -1.1024175 2.3799999
7.0418444 0.95705867 -1.0997257 2.125
6.9505606 1.3676927 -1.0861663 1.625
6.9961066 1.8544823 -1.0633314 3
6.9412208 2.247431 -1.0901512 2.5714285
6.992043 2.5797822 -1.066696 2.3333333
7.0431294 2.9452417 -1.0519255 2.8333333
7.0053544 3.4670222 -0.98594105 2.5350878
6.94379 4.6465988 -0.89253932 1.7142857
7.0156345 5.0793896 -1.0438669 1
7.0231228 5.4299736 -1.0475079 0.83333331
6.9798546 5.7945619 -1.0430177 1.7142857
6.9932327 6.1402426 -1.0315828 3.25
7.1012115 6.6257539 -1.0302709 2.2857144
6.9867601 6.9707675 -1.0289358 2.5
6.8780532 7.339119 -1.0165551 3
7.0223551 7.8427877 -0.92133206 3.3155558
7.0304971 -7.9312863 -0.51019233 9.3805723
6.8983731 -6.909255 -0.70455873 6.3672142
7.0913196 -6.6902575 -0.78573292 4.8333335
6.967628 -4.5422068 -0.58791876 5.1719956
6.8562107 -4.396605 -0.79983675 0.40000001
6.9774017 -3.4589036 -0.60903215 4.71875
